ply
format ascii 1.0
element vertex 1135
property float x
property float y
property float z
property uchar red
property uchar green
property uchar blue
element face 0
property list uchar int vertex_indices
end_header
12665.2630 -40332.7660 13.6800 52 44 45
12647.3230 -40332.7650 17.4990 146 127 115
12656.4460 -40332.7650 17.3080 72 60 63
12652.2600 -40332.7630 12.9380 47 42 43
12688.9850 -40332.7630 7.9530 138 114 100
12686.1830 -40332.7620 8.8650 102 80 75
12687.9240 -40332.7620 10.5030 116 95 90
12674.7280 -40332.7610 8.4290 134 109 96
12687.7920 -40332.7610 11.4140 99 90 88
12689.3950 -40332.7590 8.4360 148 123 106
12676.2300 -40332.7580 8.3600 139 115 110
12641.5240 -40332.7570 11.6120 116 101 94
12664.2220 -40332.7570 10.4580 108 94 85
12680.8900 -40332.7570 13.9750 45 38 44
12665.9980 -40332.7560 27.1420 176 165 154
12672.1990 -40332.7540 7.3970 153 124 107
12675.8130 -40332.7530 14.7330 76 69 69
12675.8130 -40332.7530 14.7330 76 69 69
12689.1920 -40332.7530 12.0020 93 79 69
12675.5580 -40332.7510 33.2650 120 105 88
12645.4620 -40332.7500 10.2630 107 86 75
12659.3310 -40332.7500 9.8920 149 123 103
12668.1300 -40332.7500 16.8770 76 67 69
12645.1520 -40332.7480 11.8780 137 119 104
12656.0670 -40332.7480 9.0700 92 78 68
12689.6420 -40332.7480 9.3990 166 139 126
12673.1420 -40332.7470 12.4450 161 139 115
12685.9380 -40332.7460 14.8200 50 44 47
12664.8360 -40332.7450 32.6040 113 103 102
12642.0570 -40332.7430 15.0370 124 103 94
12683.2940 -40332.7420 8.1550 107 88 75
12657.7180 -40332.7400 19.5420 61 55 53
12665.9380 -40332.7400 32.2190 119 113 113
12647.7450 -40332.7390 13.1850 108 88 81
12682.3330 -40332.7390 8.8230 72 61 61
12656.0040 -40332.7380 9.3300 84 70 63
12648.2650 -40332.7360 18.5070 157 140 123
12657.4950 -40332.7360 16.3160 86 72 68
12645.9750 -40332.7350 11.0650 90 76 68
12665.8360 -40332.7340 17.7010 134 127 113
12679.7800 -40332.7340 15.0330 74 61 59
12665.6900 -40332.7330 12.0610 75 61 62
12689.1530 -40332.7330 7.5340 148 127 102
12645.5370 -40332.7310 9.7090 122 100 88
12665.9520 -40332.7310 9.7590 59 52 49
12645.3350 -40332.7290 11.8370 109 92 83
12668.4250 -40332.7290 8.1490 135 120 99
12655.7120 -40332.7280 10.9330 132 110 92
12677.4230 -40332.7270 6.6740 130 108 94
12686.5650 -40332.7260 11.9460 117 99 97
12689.6660 -40332.7260 5.8740 103 88 83
12673.7910 -40332.7250 8.8550 106 93 88
12663.1170 -40332.7240 28.6540 119 109 102
12650.3970 -40332.7230 16.4100 141 121 109
12671.8320 -40332.7230 8.3220 126 110 97
12671.8320 -40332.7230 8.3220 126 110 97
12674.9040 -40332.7230 37.5530 143 134 108
12678.9320 -40332.7220 40.5750 95 82 85
12651.4670 -40332.7210 9.5380 94 81 74
12675.6690 -40332.7210 16.3130 80 70 66
12650.8640 -40332.7190 18.8860 107 93 93
12652.0800 -40332.7190 18.6090 119 107 100
12655.4760 -40332.7170 8.3190 164 136 116
12658.4990 -40332.7170 -0.6240 102 85 77
12665.8240 -40332.7170 16.4150 100 90 79
12655.0760 -40332.7160 10.3220 100 83 77
12673.8140 -40332.7160 15.2890 136 118 95
12677.0210 -40332.7160 9.8700 136 114 99
12641.7170 -40332.7150 10.0230 83 73 64
12655.8330 -40332.7150 20.2460 134 117 108
12645.0260 -40332.7140 12.4180 100 83 77
12684.3810 -40332.7140 8.9620 98 79 73
12657.4500 -40332.7130 18.5620 87 72 70
12667.1430 -40332.7120 33.2180 68 66 74
12674.1940 -40332.7120 7.5360 113 91 80
12674.1940 -40332.7120 7.5360 113 91 80
12653.4610 -40332.7110 9.3510 108 91 79
12657.0990 -40332.7100 18.3850 100 86 82
12656.3420 -40332.7080 8.2660 80 69 67
12665.6100 -40332.7080 21.9790 149 148 130
12674.5060 -40332.7070 8.1030 141 113 97
12688.2130 -40332.7070 9.5380 101 78 78
12645.3050 -40332.7060 10.4590 114 97 85
12644.8110 -40332.7040 14.7610 165 130 112
12647.2390 -40332.7040 11.1350 94 87 74
12653.4710 -40332.7040 14.7750 89 74 68
12658.3920 -40332.7040 33.7690 100 82 78
12666.2190 -40332.7030 11.6680 87 72 66
12666.2190 -40332.7030 11.6680 87 72 66
12666.4790 -40332.7030 11.0500 112 90 77
12656.1110 -40332.7000 8.8070 94 78 70
12672.3970 -40332.7000 26.1270 62 54 53
12652.2700 -40332.6990 13.2960 51 43 44
12689.5150 -40332.6980 9.7890 84 73 64
12667.7870 -40332.6970 18.0850 145 124 110
12671.9130 -40332.6970 9.9850 110 88 82
12645.5170 -40332.6960 9.6420 107 90 77
12650.4180 -40332.6960 14.8420 129 114 111
12651.0270 -40332.6960 13.6270 138 117 103
12683.6060 -40332.6960 5.5360 61 53 50
12689.1380 -40332.6960 8.3390 169 136 115
12646.5130 -40332.6940 17.2590 125 101 92
12649.4600 -40332.6940 23.2390 116 106 99
12666.5610 -40332.6930 10.1380 105 97 85
12650.6110 -40332.6920 13.5530 101 84 71
12655.6630 -40332.6920 20.1920 125 109 92
12687.2430 -40332.6900 8.4180 134 110 97
12666.1280 -40332.6890 32.3900 136 132 123
12651.0960 -40332.6880 14.3560 139 119 102
12681.1090 -40332.6870 8.8640 109 90 83
12682.4960 -40332.6870 8.9500 55 49 48
12651.5410 -40332.6840 13.7570 104 93 83
12667.3460 -40332.6840 7.1430 106 95 84
12667.2550 -40332.6830 27.1320 70 67 72
12676.1640 -40332.6830 24.9640 117 107 97
12682.6180 -40332.6820 8.2420 81 70 66
12656.4670 -40332.6810 9.7440 100 80 75
12657.9510 -40332.6810 8.9240 119 103 83
12654.0340 -40332.6740 8.7750 77 66 61
12655.8390 -40332.6740 11.6640 143 117 99
12673.9560 -40332.6740 8.8650 135 117 106
12641.8610 -40332.6730 10.0710 88 76 69
12650.8290 -40332.6720 11.2440 130 108 98
12676.5670 -40332.6720 29.9090 97 85 79
12672.7060 -40332.6700 11.7100 143 123 98
12673.2720 -40332.6700 10.5610 152 127 111
12641.8500 -40332.6690 12.8580 78 68 61
12679.7770 -40332.6690 9.2010 113 92 75
12654.9120 -40332.6680 8.4250 97 76 67
12666.0050 -40332.6680 13.0130 92 75 69
12652.8800 -40332.6670 18.5040 145 130 116
12656.4570 -40332.6670 10.0500 107 90 78
12667.1630 -40332.6670 9.4690 96 77 71
12673.0920 -40332.6670 9.2770 112 88 80
12641.7420 -40332.6660 12.3720 78 65 65
12672.4440 -40332.6660 8.0440 83 77 72
12644.7970 -40332.6650 6.9240 148 124 109
12657.9760 -40332.6650 8.8030 119 101 83
12665.4950 -40332.6650 12.0820 93 74 58
12673.9240 -40332.6640 8.8360 134 118 101
12645.5780 -40332.6630 9.0490 109 90 79
12678.3670 -40332.6630 11.0900 121 107 90
12650.2200 -40332.6620 14.9330 76 63 64
12685.5180 -40332.6620 8.0140 127 106 100
12657.7530 -40332.6610 16.3670 100 83 82
12668.7990 -40332.6610 13.9860 95 85 85
12686.9620 -40332.6600 9.4640 128 103 89
12685.2490 -40332.6590 6.7870 103 86 82
12645.5430 -40332.6580 9.4570 109 91 78
12650.7370 -40332.6580 8.1370 77 67 62
12666.2570 -40332.6540 26.0260 189 183 160
12673.5930 -40332.6540 8.3290 141 113 98
12652.5300 -40332.6530 10.2120 113 92 80
12665.8440 -40332.6530 29.0520 163 155 143
12688.0750 -40332.6530 9.5840 138 119 103
12683.2720 -40332.6510 8.7210 106 84 74
12688.1080 -40332.6510 8.9920 111 94 66
12647.8820 -40332.6500 21.2330 181 159 141
12647.1360 -40332.6480 11.1380 96 83 80
12654.6700 -40332.6480 8.6230 125 102 88
12673.8370 -40332.6480 8.7240 118 105 96
12673.6940 -40332.6460 7.6320 130 111 98
12644.7720 -40332.6450 16.8520 141 122 115
12651.3400 -40332.6450 11.7320 108 92 80
12673.8820 -40332.6450 8.4220 140 116 100
12682.7190 -40332.6450 14.3170 74 66 65
12650.0050 -40332.6430 17.8910 155 133 116
12660.6600 -40332.6430 19.2370 82 75 72
12669.0760 -40332.6430 16.2550 112 103 98
12657.2900 -40332.6420 22.4470 70 62 61
12665.9620 -40332.6410 26.9090 194 187 167
12689.2190 -40332.6410 7.7600 147 116 102
12642.3860 -40332.6390 14.8820 93 79 74
12672.5470 -40332.6390 8.4150 148 122 107
12673.6290 -40332.6390 8.4540 138 115 101
12685.0620 -40332.6390 9.1120 145 121 101
12682.0830 -40332.6370 8.0380 111 88 80
12642.5740 -40332.6360 10.5560 115 98 86
12668.0660 -40332.6350 13.2910 67 63 61
12668.3600 -40332.6330 25.4620 162 145 127
12676.9300 -40332.6330 18.0070 58 51 50
12665.6970 -40332.6320 19.0550 116 108 99
12673.9430 -40332.6320 8.6130 142 117 102
12661.8380 -40332.6310 26.6070 136 125 113
12640.9840 -40332.6290 12.1180 116 101 87
12669.5360 -40332.6290 -4.5870 161 138 116
12650.0700 -40332.6260 12.7870 133 113 92
12675.9890 -40332.6260 8.9290 165 135 117
12686.9310 -40332.6260 10.0980 139 114 98
12641.4420 -40332.6250 7.3850 98 85 78
12672.7200 -40332.6250 9.1630 153 130 112
12650.7110 -40332.6230 12.5220 111 95 79
12657.0630 -40332.6230 9.3860 137 114 96
12644.1210 -40332.6220 10.9460 175 148 125
12675.4200 -40332.6220 8.6450 127 101 95
12676.7730 -40332.6220 7.9720 112 93 84
12646.4050 -40332.6210 16.4310 113 97 88
12664.9890 -40332.6190 12.2320 45 43 42
12649.3960 -40332.6180 8.1250 108 94 80
12649.7730 -40332.6180 13.4720 85 71 67
12650.3970 -40332.6180 11.6050 106 91 82
12680.5560 -40332.6180 7.1870 65 55 54
12657.7880 -40332.6170 16.5560 132 120 108
12650.3590 -40332.6160 12.4230 101 88 82
12673.6150 -40332.6160 11.0540 103 90 82
12679.7720 -40332.6160 11.0130 49 43 43
12686.3300 -40332.6150 8.5550 110 86 75
12656.6250 -40332.6140 9.0250 102 89 79
12670.3800 -40332.6140 15.2760 108 92 80
12646.3720 -40332.6130 10.6860 104 86 77
12676.8310 -40332.6130 3.6680 106 84 79
12645.6320 -40332.6120 8.5220 112 96 80
12685.1470 -40332.6120 12.8820 58 52 51
12665.9710 -40332.6110 24.4440 156 147 130
12649.3650 -40332.6090 19.6920 138 121 110
12649.6140 -40332.6090 19.8090 130 115 99
12655.7420 -40332.6090 5.5280 153 124 98
12654.8080 -40332.6060 8.6660 96 76 67
12679.6480 -40332.6060 3.0690 130 122 116
12676.8500 -40332.6050 11.8140 41 37 40
12643.7350 -40332.6040 13.4560 134 112 96
12681.0240 -40332.6020 8.3280 137 113 104
12687.6760 -40332.6020 10.2890 134 114 108
12660.6690 -40332.6000 18.2750 76 70 70
12670.4970 -40332.6000 10.8360 60 51 49
12665.2260 -40332.5990 11.3430 46 44 44
12665.6020 -40332.5980 16.9960 97 83 77
12681.0960 -40332.5970 9.0470 109 92 77
12684.8490 -40332.5960 11.2820 148 127 116
12682.0210 -40332.5950 9.2220 73 62 60
12646.8140 -40332.5910 16.4850 152 136 114
12676.4500 -40332.5900 13.5220 145 121 104
12686.4010 -40332.5900 9.1930 109 94 90
12644.7750 -40332.5890 13.2840 107 87 81
12669.0880 -40332.5880 11.7550 140 114 95
12677.4490 -40332.5880 7.9320 136 111 92
12680.0760 -40332.5870 11.6380 60 51 50
12645.1480 -40332.5860 10.0850 108 93 85
12650.5280 -40332.5850 8.6430 76 65 67
12675.8570 -40332.5850 11.6330 134 113 110
12660.6260 -40332.5840 19.0880 110 98 87
12689.7940 -40332.5830 8.1410 154 126 113
12658.4860 -40332.5810 9.4390 133 112 99
12678.9190 -40332.5810 10.4000 131 109 94
12645.0960 -40332.5790 10.9080 139 113 97
12669.6680 -40332.5790 13.5760 93 73 70
12669.6680 -40332.5790 13.5760 93 73 70
12683.7430 -40332.5790 9.4690 67 58 58
12664.4130 -40332.5770 10.5190 108 85 76
12666.2470 -40332.5770 17.6100 94 89 82
12681.3600 -40332.5770 10.6760 59 52 51
12673.5680 -40332.5750 15.0080 113 96 85
12645.4220 -40332.5740 10.4160 108 87 79
12676.9300 -40332.5730 8.3900 120 99 84
12640.6730 -40332.5720 11.4010 90 72 64
12642.7460 -40332.5720 13.4060 121 105 91
12642.7460 -40332.5720 13.4060 121 105 91
12649.6890 -40332.5720 17.0250 98 88 76
12646.2660 -40332.5700 8.7170 141 121 111
12656.5430 -40332.5700 10.0690 94 78 73
12681.2580 -40332.5700 7.1400 103 85 76
12653.4970 -40332.5680 10.7490 119 100 83
12666.7280 -40332.5680 37.4320 160 141 127
12667.1370 -40332.5670 11.2070 100 85 78
12649.0480 -40332.5660 10.1080 139 117 98
12641.9790 -40332.5650 14.8740 103 86 78
12673.4760 -40332.5650 9.8560 94 83 77
12656.3990 -40332.5640 10.8770 99 85 77
12657.7210 -40332.5640 8.9730 111 94 86
12680.7340 -40332.5640 8.4360 114 94 76
12656.2080 -40332.5630 9.6090 139 118 102
12688.9440 -40332.5610 4.6660 128 109 100
12686.6180 -40332.5590 8.9820 128 106 95
12650.2420 -40332.5580 10.5420 108 93 87
12682.4690 -40332.5580 8.0970 71 61 59
12686.0270 -40332.5580 8.0090 51 47 50
12652.1650 -40332.5570 11.8820 123 107 99
12653.0090 -40332.5530 12.5430 185 159 130
12675.2230 -40332.5530 8.7690 145 122 110
12686.9100 -40332.5510 10.0750 133 110 95
12672.4080 -40332.5500 7.9560 77 74 68
12675.3860 -40332.5500 13.5570 75 65 69
12676.6870 -40332.5490 8.6350 104 87 77
12677.1510 -40332.5490 15.5300 123 100 91
12656.4110 -40332.5470 21.9590 112 96 90
12670.2250 -40332.5450 17.7630 107 87 75
12649.9940 -40332.5430 10.9790 130 111 98
12676.0550 -40332.5420 9.7110 163 136 110
12687.4040 -40332.5420 9.1890 132 114 106
12649.2080 -40332.5410 12.7860 137 116 101
12646.4030 -40332.5390 14.4280 125 108 92
12646.5080 -40332.5380 20.4630 68 61 63
12647.2300 -40332.5380 11.3520 102 87 77
12647.6790 -40332.5380 20.7460 156 136 123
12645.0350 -40332.5370 8.7890 89 77 74
12665.6640 -40332.5370 26.3270 127 124 119
12683.7630 -40332.5370 10.1080 75 63 63
12645.7230 -40332.5360 15.7640 136 117 102
12665.3480 -40332.5350 28.3780 99 95 91
12664.9350 -40332.5340 14.0280 107 88 74
12650.2190 -40332.5320 9.8020 113 104 97
12676.1940 -40332.5310 12.1830 160 134 116
12652.2690 -40332.5300 10.4940 128 107 94
12668.1000 -40332.5300 10.2400 109 90 83
12673.8900 -40332.5280 8.1290 116 105 95
12685.8780 -40332.5280 15.8920 126 111 98
12670.3090 -40332.5270 15.7230 118 100 89
12677.1270 -40332.5270 8.8910 121 95 84
12689.4820 -40332.5270 8.5670 138 114 107
12640.1830 -40332.5260 16.5020 75 68 64
12640.1830 -40332.5260 16.5020 75 68 64
12644.0430 -40332.5260 16.0040 72 64 61
12653.9860 -40332.5240 9.2030 86 71 72
12664.8380 -40332.5240 36.0560 116 112 110
12671.4150 -40332.5240 12.0730 141 115 94
12675.1510 -40332.5240 8.3020 147 122 109
12672.7100 -40332.5220 11.3510 91 78 78
12672.7100 -40332.5220 11.3510 91 78 78
12652.3860 -40332.5200 13.9180 150 123 118
12665.5180 -40332.5200 28.3480 131 123 117
12671.6410 -40332.5200 5.8920 133 114 89
12671.6410 -40332.5200 5.8920 133 114 89
12660.7440 -40332.5190 21.4110 101 88 80
12679.4860 -40332.5190 10.5570 98 81 69
12650.8000 -40332.5170 15.5060 181 161 139
12684.2160 -40332.5170 10.7350 90 77 70
12656.2920 -40332.5160 9.2520 131 106 86
12657.5850 -40332.5150 18.3280 64 53 57
12680.9730 -40332.5140 10.9110 84 67 63
12688.0100 -40332.5140 15.6180 132 118 104
12686.9950 -40332.5120 11.8680 77 70 71
12657.5780 -40332.5110 14.0520 98 77 77
12684.7090 -40332.5110 9.1220 112 93 80
12689.3660 -40332.5110 5.6890 80 68 67
12689.3660 -40332.5110 5.6890 80 68 67
12689.2770 -40332.5090 10.4280 91 80 74
12689.2770 -40332.5090 10.4280 91 80 74
12684.5340 -40332.5080 8.1980 113 91 74
12645.5960 -40332.5040 7.6140 138 117 107
12658.1910 -40332.5040 14.6370 140 121 109
12654.4260 -40332.5020 9.0650 102 86 81
12676.9970 -40332.5020 8.4590 118 96 87
12667.1050 -40332.5010 11.6690 102 86 79
12651.4060 -40332.5000 11.6580 113 99 89
12689.0430 -40332.5000 3.3730 169 153 137
12645.0770 -40332.4990 9.8750 91 79 73
12647.8800 -40332.4990 14.0480 135 117 104
12663.6040 -40332.4990 7.7040 107 86 75
12670.3410 -40332.4990 16.3860 103 87 78
12671.4810 -40332.4990 7.1410 131 110 99
12683.4350 -40332.4980 4.2240 158 130 94
12651.5040 -40332.4970 9.4240 82 70 60
12670.7450 -40332.4960 15.0710 103 84 74
12679.8630 -40332.4960 31.2420 134 116 104
12645.8670 -40332.4940 13.7930 120 103 86
12647.5500 -40332.4940 10.9870 103 87 77
12669.8930 -40332.4940 15.1820 83 70 69
12656.7410 -40332.4920 16.7630 79 70 71
12664.3680 -40332.4920 15.5940 79 68 68
12664.3680 -40332.4920 15.5940 79 68 68
12672.4920 -40332.4910 8.0250 123 99 79
12643.8890 -40332.4900 10.3830 165 135 111
12685.8610 -40332.4900 8.6840 117 99 90
12676.6590 -40332.4890 8.6740 106 92 88
12684.5300 -40332.4870 8.1480 118 97 77
12649.7660 -40332.4850 20.1090 151 130 116
12683.9770 -40332.4820 6.5720 93 82 70
12649.5350 -40332.4810 10.1390 149 132 122
12666.4660 -40332.4790 21.4140 110 104 89
12675.5900 -40332.4790 8.8320 129 107 94
12644.6320 -40332.4770 11.3980 96 84 73
12645.0880 -40332.4740 9.7780 89 78 72
12654.9730 -40332.4740 11.2760 141 118 109
12665.3720 -40332.4720 8.3280 86 75 66
12674.7950 -40332.4710 23.3220 102 81 72
12688.3490 -40332.4700 8.0600 155 129 104
12681.7770 -40332.4690 8.8450 103 82 76
12688.3430 -40332.4670 8.0530 153 129 103
12673.3840 -40332.4660 11.3290 114 105 98
12688.3110 -40332.4660 12.8450 95 79 74
12654.4950 -40332.4650 9.8780 161 146 121
12656.7210 -40332.4650 8.8210 100 84 76
12683.8030 -40332.4640 14.3970 128 114 99
12646.2270 -40332.4630 19.9960 118 99 93
12675.9500 -40332.4630 11.0220 104 85 83
12683.1500 -40332.4630 9.2040 82 71 68
12684.3560 -40332.4630 5.1820 117 98 90
12689.7790 -40332.4630 9.4360 152 131 109
12646.8130 -40332.4620 16.2840 105 88 80
12656.3500 -40332.4620 9.2490 140 117 99
12641.8120 -40332.4610 10.0360 73 59 59
12654.4630 -40332.4610 8.9400 115 93 77
12667.7840 -40332.4600 10.9980 137 117 87
12647.7400 -40332.4570 16.0870 144 132 128
12680.4120 -40332.4570 7.7380 59 53 52
12666.1420 -40332.4540 23.6220 143 139 131
12674.1230 -40332.4530 8.9920 125 103 85
12685.5860 -40332.4520 7.1970 95 83 72
12682.9140 -40332.4510 12.7740 113 99 89
12657.3750 -40332.4500 16.5250 104 86 85
12658.0360 -40332.4480 15.6870 88 75 75
12674.7150 -40332.4480 8.0000 132 107 93
12682.8770 -40332.4480 10.3700 64 58 56
12689.4910 -40332.4480 8.3220 164 140 123
12650.2310 -40332.4470 12.6920 75 64 63
12654.1010 -40332.4470 18.4860 192 166 141
12645.3500 -40332.4460 9.5640 103 86 74
12647.6370 -40332.4460 19.7390 157 139 126
12650.0840 -40332.4460 7.8300 119 97 80
12655.5550 -40332.4460 12.5390 135 121 112
12689.3160 -40332.4460 7.4510 165 135 117
12645.4000 -40332.4450 9.2400 116 97 86
12665.9680 -40332.4450 22.1540 183 173 155
12679.4840 -40332.4440 14.6360 65 56 57
12685.7790 -40332.4440 7.7020 88 78 64
12653.7240 -40332.4420 26.3110 113 100 99
12656.8340 -40332.4420 5.6670 84 74 67
12676.8040 -40332.4420 8.8870 101 87 73
12641.1200 -40332.4410 18.3250 95 83 80
12645.1370 -40332.4410 11.6860 92 77 72
12682.3030 -40332.4390 8.2530 91 76 74
12652.7860 -40332.4380 11.0730 142 127 98
12680.8590 -40332.4370 11.0450 73 63 63
12658.7630 -40332.4350 7.8090 134 113 98
12668.3000 -40332.4330 12.6180 138 116 102
12646.4690 -40332.4320 10.3110 106 83 76
12666.2260 -40332.4320 21.4560 91 88 84
12669.0440 -40332.4320 9.2290 76 67 63
12658.7060 -40332.4310 20.5840 95 90 78
12685.0700 -40332.4310 14.7130 50 46 46
12648.1340 -40332.4300 15.0720 111 94 81
12655.3740 -40332.4300 9.0810 124 110 88
12652.8130 -40332.4290 6.6620 125 111 102
12670.4080 -40332.4290 13.7480 94 80 73
12656.3690 -40332.4280 9.1440 141 114 94
12659.4710 -40332.4260 15.9950 71 65 60
12669.4640 -40332.4260 12.6630 143 118 99
12645.3770 -40332.4250 9.4040 106 87 80
12679.8510 -40332.4230 8.5500 62 54 54
12667.0790 -40332.4220 31.9090 52 48 50
12669.5310 -40332.4210 12.8710 138 111 99
12647.2280 -40332.4200 14.5180 135 118 103
12641.8560 -40332.4150 11.1880 121 104 89
12649.4740 -40332.4150 12.1550 128 111 98
12656.3900 -40332.4140 9.0210 138 114 91
12672.9870 -40332.4140 9.5800 149 130 117
12683.6680 -40332.4130 9.2900 70 62 57
12688.7150 -40332.4130 8.7270 118 100 79
12643.9580 -40332.4120 9.9970 162 134 107
12677.4000 -40332.4120 7.5610 79 71 70
12665.7850 -40332.4110 11.5410 125 114 103
12666.9990 -40332.4110 37.1530 128 122 118
12688.3620 -40332.4100 8.0210 143 119 105
12644.9300 -40332.4090 9.1340 124 99 90
12678.0350 -40332.4090 8.3520 156 129 111
12656.2700 -40332.4070 9.5430 147 120 107
12654.3620 -40332.4050 9.6460 98 75 67
12672.2730 -40332.4050 8.3730 116 94 84
12686.6700 -40332.4040 12.1030 91 78 80
12657.0260 -40332.4030 13.5040 95 80 68
12689.8100 -40332.4020 9.3510 168 149 128
12675.9860 -40332.4010 8.0880 153 127 115
12685.6990 -40332.4000 12.6530 113 98 86
12658.9060 -40332.3990 8.5620 136 114 99
12681.5580 -40332.3990 10.3690 135 114 100
12688.4340 -40332.3990 8.2790 150 122 105
12651.2570 -40332.3980 16.1860 144 124 121
12657.1640 -40332.3980 16.4760 107 90 85
12654.4010 -40332.3970 8.9150 129 105 92
12680.1000 -40332.3970 9.5090 81 69 62
12677.0470 -40332.3960 7.9590 116 99 88
12684.1210 -40332.3960 13.1290 152 127 108
12647.0990 -40332.3950 13.5550 100 85 76
12656.7410 -40332.3940 8.8620 106 87 81
12666.0030 -40332.3940 21.9000 175 167 148
12683.4980 -40332.3910 8.3560 103 88 78
12643.4510 -40332.3900 11.6660 140 122 106
12657.6710 -40332.3900 14.1850 92 74 72
12683.1990 -40332.3890 11.6950 108 88 72
12687.5520 -40332.3880 8.3470 98 84 71
12662.8370 -40332.3870 21.5480 122 109 104
12683.1010 -40332.3870 8.4400 66 64 58
12654.1910 -40332.3840 9.4600 115 95 76
12671.6530 -40332.3840 33.8520 165 144 122
12671.4670 -40332.3830 17.2540 127 109 99
12656.5780 -40332.3810 8.1330 144 114 93
12665.8240 -40332.3780 5.6660 96 78 72
12671.2210 -40332.3780 19.0790 122 101 83
12676.1930 -40332.3780 8.7900 152 126 115
12652.0020 -40332.3770 10.4810 136 111 96
12658.7550 -40332.3770 17.9010 81 71 71
12656.2070 -40332.3760 8.8310 116 101 86
12678.5130 -40332.3760 8.2590 139 111 97
12688.1610 -40332.3760 10.7080 118 104 96
12642.4960 -40332.3730 8.5290 81 68 63
12656.3800 -40332.3730 11.0460 103 89 85
12677.0500 -40332.3720 8.2580 127 105 92
12687.2020 -40332.3720 8.1550 111 94 88
12666.9770 -40332.3700 11.2820 140 113 91
12678.0280 -40332.3700 13.3160 105 95 82
12686.7270 -40332.3690 8.8700 134 115 97
12688.4930 -40332.3690 8.5070 137 115 106
12644.3050 -40332.3680 9.5750 169 138 112
12651.9930 -40332.3680 27.9850 150 131 116
12669.4070 -40332.3680 3.6040 146 124 109
12642.9620 -40332.3670 19.4950 79 70 69
12677.8010 -40332.3670 7.3440 128 111 99
12656.1940 -40332.3660 12.4560 90 83 74
12678.1130 -40332.3650 9.6730 163 138 120
12687.3170 -40332.3650 10.1190 105 83 78
12642.3670 -40332.3640 11.9660 142 126 106
12674.9510 -40332.3640 8.9600 127 102 99
12648.0760 -40332.3630 15.3080 140 129 122
12640.0110 -40332.3620 11.3380 102 84 77
12656.8420 -40332.3620 11.1540 95 79 69
12674.8840 -40332.3610 10.0980 145 119 105
12676.3970 -40332.3610 9.4530 166 134 114
12681.5100 -40332.3610 8.2080 112 98 85
12657.5390 -40332.3580 7.9280 136 116 93
12671.4190 -40332.3580 14.8530 135 113 96
12679.6570 -40332.3580 10.4180 123 107 103
12679.6570 -40332.3580 10.4180 123 107 103
12688.3470 -40332.3570 11.4410 100 91 86
12647.8390 -40332.3560 17.4750 107 100 80
12647.8880 -40332.3550 17.2620 137 120 105
12659.8550 -40332.3550 10.9030 142 127 111
12669.5220 -40332.3550 12.5890 98 78 70
12681.2270 -40332.3550 12.5000 104 90 88
12682.8300 -40332.3540 8.5770 101 86 80
12670.9490 -40332.3530 11.2160 103 86 82
12675.5030 -40332.3500 9.4030 150 122 111
12685.1610 -40332.3500 7.8560 95 79 74
12689.4120 -40332.3500 8.0680 162 133 113
12653.7550 -40332.3490 8.4700 112 93 81
12677.0630 -40332.3490 16.0110 119 97 93
12682.8030 -40332.3480 8.8070 100 85 77
12644.7920 -40332.3470 10.1760 117 99 86
12660.0820 -40332.3470 13.8670 134 122 102
12681.4950 -40332.3470 8.6670 106 89 75
12687.6000 -40332.3470 8.8090 109 86 78
12688.6070 -40332.3470 7.8340 77 63 61
12668.6030 -40332.3460 17.9560 87 78 79
12684.7330 -40332.3460 16.7210 85 75 71
12649.0420 -40332.3440 11.2410 114 95 86
12689.3800 -40332.3440 7.9270 164 132 107
12653.3050 -40332.3420 11.2990 129 110 91
12663.1670 -40332.3420 11.5430 110 95 84
12674.7480 -40332.3420 9.6540 85 75 70
12683.0450 -40332.3420 11.3260 62 55 56
12683.1840 -40332.3410 12.2500 55 50 50
12657.4920 -40332.3400 22.3640 126 106 89
12668.0410 -40332.3400 6.7630 141 119 111
12674.6700 -40332.3400 12.3440 42 41 39
12670.9790 -40332.3390 9.4720 70 60 52
12677.3370 -40332.3390 8.4510 80 68 63
12674.6930 -40332.3370 36.0020 115 106 103
12659.9080 -40332.3340 11.0730 119 105 96
12671.7250 -40332.3340 9.4290 120 102 88
12671.7250 -40332.3340 9.4290 120 102 88
12677.3860 -40332.3330 8.7640 78 69 65
12650.0750 -40332.3320 21.0710 85 73 69
12659.4070 -40332.3320 11.4730 101 86 76
12674.5600 -40332.3320 11.5040 88 79 76
12655.6860 -40332.3300 11.6840 126 113 90
12655.6860 -40332.3300 11.6840 126 113 90
12678.9560 -40332.3300 25.8070 74 66 71
12649.8760 -40332.3270 11.2720 119 103 86
12649.8760 -40332.3270 11.2720 119 103 86
12665.8500 -40332.3270 21.6980 163 160 143
12657.7180 -40332.3260 11.8500 83 74 72
12687.3630 -40332.3250 10.0580 96 80 78
12687.3630 -40332.3250 10.0580 96 80 78
12678.5510 -40332.3240 8.4710 141 114 97
12655.7260 -40332.3230 11.7650 136 120 110
12660.5700 -40332.3220 14.8890 113 98 94
12675.9190 -40332.3220 8.5990 154 127 115
12676.5020 -40332.3220 9.3590 153 131 109
12648.3090 -40332.3210 15.9250 115 93 87
12654.9010 -40332.3200 9.5530 161 135 112
12682.2680 -40332.3200 10.5480 102 91 80
12679.3530 -40332.3180 19.8850 137 118 107
12656.6000 -40332.3170 11.1970 93 78 71
12681.7140 -40332.3170 9.0700 103 88 78
12686.3770 -40332.3170 6.6090 104 82 81
12668.3140 -40332.3150 23.4610 102 91 92
12648.5640 -40332.3130 18.9760 124 111 103
12648.5640 -40332.3130 18.9760 124 111 103
12650.6430 -40332.3130 28.1050 163 147 132
12677.4330 -40332.3130 7.7080 124 94 77
12650.2850 -40332.3120 12.1800 93 80 73
12659.9440 -40332.3120 11.3760 119 101 90
12652.2180 -40332.3110 11.3580 156 126 110
12664.2410 -40332.3100 39.3790 89 86 87
12659.1610 -40332.3090 15.8490 75 64 65
12670.5130 -40332.3090 19.6770 177 151 135
12681.0480 -40332.3090 7.7610 82 69 65
12646.0270 -40332.3070 12.6920 139 119 109
12657.3190 -40332.3070 10.4520 109 88 77
12657.3190 -40332.3070 10.4520 109 88 77
12689.8410 -40332.3070 7.6340 114 98 90
12643.4190 -40332.3060 17.1640 118 99 89
12683.1460 -40332.3050 8.1420 114 99 99
12687.5810 -40332.3050 8.8050 101 85 78
12676.1650 -40332.3040 8.7790 156 129 117
12667.6450 -40332.3020 32.8690 67 61 67
12675.9890 -40332.3020 8.1960 161 131 105
12659.2380 -40332.3010 13.7830 77 62 62
12667.6540 -40332.2980 33.8020 154 134 116
12646.8800 -40332.2970 17.1330 116 98 81
12682.9980 -40332.2940 9.0090 110 95 95
12646.8410 -40332.2930 19.6880 105 92 88
12672.8120 -40332.2930 18.9940 169 139 115
12681.0110 -40332.2920 9.3270 91 77 68
12666.2220 -40332.2910 22.7320 151 144 132
12661.3710 -40332.2860 8.1450 73 63 62
12688.5440 -40332.2860 8.4140 90 76 72
12687.1570 -40332.2850 8.1330 119 94 86
12688.6050 -40332.2850 8.7230 145 121 109
12643.1570 -40332.2830 14.7840 127 108 102
12674.4570 -40332.2820 5.0000 153 125 107
12671.1120 -40332.2810 10.7820 95 80 73
12687.6830 -40332.2810 11.5090 112 97 88
12655.7210 -40332.2800 12.4930 141 125 106
12666.8740 -40332.2790 10.6680 113 91 79
12644.8410 -40332.2780 14.5320 107 87 79
12666.5530 -40332.2780 25.3000 156 147 138
12683.4130 -40332.2780 12.5120 74 63 59
12644.6980 -40332.2770 11.1520 166 135 112
12663.4430 -40332.2770 13.1460 60 56 55
12671.7210 -40332.2770 10.1660 139 117 94
12678.6180 -40332.2770 9.5160 152 128 110
12672.5650 -40332.2760 10.2800 144 120 98
12669.2840 -40332.2750 18.6810 78 65 64
12656.0930 -40332.2720 9.6610 124 101 95
12673.7620 -40332.2720 11.2910 127 105 85
12656.0860 -40332.2710 10.4510 135 119 100
12666.3310 -40332.2710 15.0040 129 110 95
12645.3140 -40332.2680 17.1930 79 65 66
12647.9880 -40332.2680 13.3200 111 95 81
12650.4120 -40332.2680 11.2660 78 69 69
12663.9870 -40332.2680 21.5780 141 126 120
12668.2380 -40332.2670 16.2940 168 143 124
12646.7690 -40332.2660 15.5210 154 129 115
12647.7810 -40332.2630 20.8060 80 69 67
12648.8180 -40332.2630 12.6300 79 68 62
12659.0660 -40332.2630 18.2820 105 91 88
12666.0580 -40332.2630 20.6020 174 162 140
12649.5480 -40332.2620 22.6920 121 108 106
12676.0070 -40332.2620 8.8320 153 127 113
12666.3160 -40332.2610 21.2540 114 102 102
12684.4310 -40332.2610 8.7760 115 97 84
12670.3720 -40332.2590 20.7910 144 122 106
12650.3970 -40332.2560 13.0540 152 128 107
12650.3970 -40332.2560 13.0540 152 128 107
12651.9630 -40332.2560 9.0660 132 110 94
12654.6760 -40332.2550 8.3650 156 128 106
12659.0690 -40332.2550 16.5600 153 138 125
12664.8150 -40332.2550 16.4100 117 102 98
12683.2220 -40332.2550 8.1190 60 57 56
12675.1190 -40332.2540 13.9980 149 127 119
12666.5600 -40332.2520 26.5180 124 114 113
12673.1270 -40332.2510 9.0110 84 73 61
12673.4920 -40332.2510 10.8500 137 110 94
12675.2460 -40332.2510 4.6840 112 93 86
12645.6870 -40332.2500 14.6200 107 90 81
12678.3280 -40332.2490 9.2760 138 121 111
12686.3290 -40332.2440 13.4720 60 55 58
12666.7840 -40332.2420 15.8870 52 45 47
12673.2330 -40332.2420 6.5200 143 124 116
12659.7820 -40332.2410 25.9210 104 96 91
12655.6690 -40332.2390 12.0000 137 117 110
12666.1400 -40332.2350 24.5770 187 180 162
12645.7430 -40332.2340 16.4890 110 93 85
12673.8990 -40332.2340 9.9290 106 95 90
12665.5600 -40332.2300 17.8370 140 116 89
12672.2460 -40332.2300 11.1510 125 106 92
12641.7620 -40332.2280 13.9370 118 101 93
12653.5040 -40332.2260 8.8710 118 98 89
12654.5770 -40332.2260 8.1910 149 124 102
12658.3430 -40332.2260 9.6680 168 137 108
12666.1160 -40332.2260 24.0240 92 86 85
12666.3470 -40332.2260 4.4650 67 65 60
12675.5460 -40332.2260 6.7330 113 96 73
12677.8400 -40332.2250 10.1960 87 73 70
12646.3600 -40332.2240 19.7110 88 79 76
12660.6190 -40332.2240 12.8990 100 91 84
12677.5640 -40332.2230 8.2060 122 95 82
12646.4960 -40332.2220 16.3300 146 122 110
12656.3330 -40332.2220 13.8120 139 128 104
12681.5670 -40332.2210 8.1550 92 75 73
12650.0480 -40332.2180 18.2020 145 128 109
12654.9610 -40332.2180 9.1880 161 134 108
12657.9740 -40332.2180 8.9880 136 119 107
12685.3230 -40332.2180 14.3610 112 93 81
12650.2340 -40332.2170 14.3600 102 90 87
12657.2370 -40332.2170 9.2390 90 73 66
12686.3400 -40332.2140 13.6880 117 111 106
12686.7420 -40332.2140 8.8860 138 114 100
12688.1860 -40332.2140 18.2820 169 151 133
12653.5850 -40332.2120 15.3880 93 77 71
12656.1080 -40332.2120 9.9280 132 114 104
12656.1080 -40332.2120 9.9280 132 114 104
12651.4740 -40332.2110 14.1310 198 173 149
12678.2390 -40332.2110 8.6070 154 125 107
12667.2000 -40332.2100 17.7790 143 128 118
12669.9380 -40332.2100 13.5230 130 109 92
12669.4460 -40332.2090 9.6590 105 87 85
12655.7560 -40332.2080 14.6290 85 74 71
12651.2680 -40332.2070 9.0170 115 92 85
12677.5980 -40332.2070 6.9540 110 97 83
12680.3340 -40332.2070 7.4440 84 70 65
12655.0220 -40332.2040 8.5000 158 133 109
12674.9230 -40332.2040 16.3370 66 59 64
12670.6070 -40332.2010 20.5820 138 111 97
12658.0800 -40332.2000 19.1520 125 112 99
12653.5190 -40332.1980 8.8440 121 102 87
12660.3730 -40332.1980 16.6170 91 86 81
12648.0550 -40332.1970 13.6220 150 125 115
12648.0550 -40332.1970 13.6220 150 125 115
12675.2280 -40332.1970 11.1530 87 74 71
12683.0180 -40332.1960 9.1370 104 92 91
12643.8800 -40332.1940 16.6540 120 107 96
12682.7030 -40332.1940 7.4910 69 63 59
12683.1920 -40332.1930 9.1470 57 53 55
12684.9740 -40332.1920 12.5940 128 110 105
12652.0120 -40332.1910 15.4360 91 74 69
12661.1720 -40332.1910 19.6230 123 108 94
12655.4050 -40332.1900 8.7220 166 140 118
12677.1700 -40332.1880 35.5750 44 45 49
12650.8290 -40332.1870 9.0810 136 114 100
12641.5330 -40332.1840 12.1550 106 86 80
12654.9500 -40332.1840 9.6410 155 136 113
12677.3410 -40332.1830 8.3440 76 67 67
12674.2640 -40332.1820 20.6640 168 148 126
12682.3680 -40332.1820 10.0970 94 84 86
12645.9030 -40332.1810 10.5960 136 114 97
12685.5020 -40332.1810 12.9280 106 92 89
12641.2580 -40332.1800 12.4180 93 76 72
12655.4090 -40332.1800 10.8580 104 88 80
12684.1160 -40332.1780 9.9540 122 104 91
12647.1070 -40332.1770 14.9120 146 121 108
12676.3400 -40332.1770 30.6740 154 135 117
12648.4440 -40332.1760 19.9400 163 142 127
12666.7380 -40332.1760 8.5810 96 80 72
12646.7230 -40332.1710 9.5190 134 118 105
12658.0720 -40332.1700 15.1040 81 70 66
12686.1870 -40332.1700 3.7030 135 120 105
12657.3730 -40332.1690 12.6400 107 88 82
12676.8410 -40332.1670 6.0110 84 74 73
12667.3960 -40332.1660 15.2800 147 131 121
12649.9720 -40332.1640 16.6170 117 102 91
12645.6680 -40332.1620 14.0750 109 91 83
12672.4530 -40332.1620 8.5660 108 95 82
12672.6340 -40332.1620 9.6200 118 103 91
12656.7650 -40332.1610 4.0730 163 147 130
12660.9060 -40332.1600 15.6920 69 65 69
12675.6280 -40332.1590 11.1840 77 74 71
12680.3250 -40332.1590 8.0860 86 72 69
12686.4190 -40332.1590 17.3550 144 118 100
12686.6490 -40332.1590 7.1590 111 100 91
12653.7700 -40332.1570 8.5320 106 82 78
12649.3020 -40332.1560 17.9800 157 142 123
12655.4360 -40332.1560 15.1200 130 109 93
12681.9230 -40332.1560 13.5700 94 79 70
12651.7870 -40332.1540 7.3790 130 115 102
12676.5840 -40332.1540 27.8480 152 140 125
12653.6150 -40332.1510 9.5290 133 110 97
12659.3270 -40332.1510 14.0620 122 107 92
12659.7990 -40332.1510 18.8690 121 109 103
12678.8140 -40332.1510 25.2270 67 64 65
12649.5600 -40332.1500 15.4110 122 108 99
12668.0920 -40332.1500 14.7940 99 80 77
12669.4510 -40332.1490 14.1710 116 93 80
12675.2400 -40332.1490 37.2360 63 54 57
12677.6610 -40332.1470 8.3850 127 97 83
12653.8320 -40332.1440 10.3010 114 100 94
12656.0970 -40332.1430 9.4000 107 90 78
12648.0970 -40332.1410 14.9250 120 101 91
12685.7900 -40332.1410 7.9380 138 110 104
12641.1610 -40332.1400 22.7020 71 63 65
12687.0270 -40332.1400 9.2690 107 92 80
12681.5130 -40332.1390 8.5530 87 76 67
12643.9930 -40332.1380 10.5860 165 136 113
12673.8220 -40332.1380 8.3370 151 130 114
12682.1430 -40332.1370 23.5250 54 47 51
12654.9950 -40332.1330 8.8380 162 134 115
12689.7860 -40332.1330 8.6880 111 96 89
12670.9400 -40332.1310 15.1910 95 85 80
12659.9650 -40332.1305 10.0000 114 102 93
12659.9650 -40332.1305 10.6620 117 95 92
12646.9660 -40332.1300 18.0970 100 92 87
12651.1050 -40332.1300 16.2680 120 107 94
12670.4300 -40332.1300 16.6020 139 113 92
12666.1450 -40332.1290 15.3480 84 69 70
12666.2120 -40332.1290 20.8560 138 125 118
12641.6090 -40332.1270 15.6190 92 76 72
12673.3930 -40332.1270 20.3890 97 81 72
12661.5880 -40332.1250 16.6880 138 121 113
12661.6340 -40332.1230 12.2320 101 85 77
12659.7850 -40332.1220 19.3260 150 134 118
12665.9330 -40332.1220 10.0300 51 46 46
12683.6690 -40332.1220 9.9870 155 141 122
12682.9240 -40332.1210 7.2670 158 130 94
12679.5780 -40332.1200 15.4630 142 116 99
12681.3495 -40332.1175 8.6760 58 51 46
12681.3495 -40332.1175 7.6740 77 67 62
12657.2190 -40332.1170 27.3110 138 122 113
12687.1610 -40332.1170 12.0860 107 88 84
12645.6460 -40332.1160 14.7790 126 111 98
12665.4120 -40332.1160 12.8510 111 84 79
12655.8320 -40332.1150 10.3350 132 116 96
12678.4720 -40332.1130 13.5480 112 96 86
12643.6160 -40332.1120 12.7550 110 95 88
12674.9360 -40332.1120 7.2810 157 128 107
12641.1520 -40332.1090 13.4450 60 57 56
12684.2910 -40332.1090 9.4500 71 63 61
12655.7970 -40332.1080 10.4470 137 123 106
12672.5660 -40332.1080 8.9860 126 110 87
12659.8970 -40332.1060 9.1250 119 100 90
12680.3200 -40332.1060 8.1100 92 75 67
12675.5890 -40332.1040 15.0870 71 63 70
12640.3710 -40332.1030 14.1440 104 84 78
12673.7850 -40332.1030 8.5480 146 122 101
12682.7640 -40332.1030 8.3370 157 125 94
12650.0150 -40332.1020 9.6800 132 119 98
12650.2390 -40332.1020 23.9590 136 121 114
12661.4800 -40332.1020 28.8700 110 103 94
12657.0730 -40332.0990 15.8420 111 94 88
12646.4310 -40332.0980 18.0090 116 103 96
12655.2560 -40332.0980 8.5200 129 114 90
12671.7990 -40332.0980 9.0960 137 110 91
12655.2900 -40332.0970 9.6870 142 117 98
12684.1700 -40332.0970 4.6450 126 104 94
12649.0140 -40332.0960 16.6280 148 126 108
12672.9320 -40332.0960 9.2680 137 111 94
12674.3680 -40332.0950 9.7740 146 123 94
12681.3860 -40332.0950 8.3040 76 68 59
12656.5240 -40332.0940 16.8500 112 96 89
12642.4230 -40332.0930 9.4850 86 75 66
12655.3790 -40332.0930 23.0000 119 108 101
12678.4470 -40332.0930 3.0030 132 111 86
12682.7270 -40332.0920 8.8400 163 132 99
12654.0930 -40332.0910 8.9580 126 105 93
12687.8460 -40332.0910 18.7470 63 58 60
12663.3160 -40332.0890 9.1350 48 42 43
12689.2050 -40332.0890 7.5670 120 99 81
12682.7130 -40332.0880 8.8510 150 123 89
12689.1390 -40332.0880 7.6950 122 99 81
12671.3580 -40332.0870 15.3600 40 35 36
12671.3580 -40332.0870 15.3600 40 35 36
12655.8930 -40332.0850 14.2570 156 137 118
12676.5060 -40332.0850 9.1010 148 122 103
12656.6160 -40332.0840 8.1390 104 88 75
12658.8490 -40332.0810 13.2950 135 118 110
12669.1880 -40332.0810 18.1280 123 103 95
12646.7070 -40332.0800 18.1170 129 118 112
12647.4730 -40332.0800 14.6300 133 114 105
12652.0270 -40332.0790 21.4470 147 123 106
12673.8270 -40332.0790 10.1700 76 72 64
12642.0100 -40332.0780 12.6380 120 100 89
12668.2110 -40332.0780 7.3770 104 86 74
12682.5950 -40332.0780 8.7220 157 137 102
12689.1310 -40332.0780 8.1500 122 104 85
12642.0690 -40332.0770 12.8630 121 100 91
12664.7170 -40332.0770 10.0720 107 89 78
12669.3310 -40332.0740 14.9260 125 96 81
12659.7520 -40332.0730 9.2830 123 103 89
12656.2690 -40332.0720 14.6410 145 129 112
12682.6120 -40332.0710 8.7020 158 140 103
12672.5870 -40332.0690 9.1900 124 104 90
12677.0780 -40332.0680 38.5490 74 64 59
12656.3510 -40332.0660 19.1830 144 128 114
12648.8300 -40332.0640 12.5930 115 96 81
12656.0890 -40332.0640 11.3570 147 131 116
12669.1940 -40332.0640 13.0590 110 87 76
12655.7050 -40332.0620 9.5730 124 107 94
12672.3050 -40332.0620 8.2770 117 100 89
12652.5290 -40332.0610 11.7690 139 115 94
12670.0350 -40332.0580 10.7290 124 100 90
12685.0060 -40332.0580 11.8140 147 129 114
12650.9540 -40332.0560 11.2290 135 115 102
12681.4970 -40332.0550 8.8530 89 77 71
12651.3040 -40332.0530 10.3870 121 103 86
12666.1010 -40332.0520 30.7700 51 46 47
12674.0550 -40332.0520 8.7460 98 87 80
12661.8100 -40332.0510 12.2310 81 67 65
12679.8970 -40332.0500 9.9480 56 48 48
12681.4280 -40332.0500 8.5040 76 67 61
12687.8560 -40332.0500 22.0780 147 117 105
12656.1400 -40332.0490 22.1390 114 102 87
12678.2030 -40332.0490 8.3230 153 120 100
12653.2170 -40332.0470 9.6520 105 84 79
12659.9740 -40332.0470 8.7030 111 94 83
12663.2470 -40332.0470 16.7080 98 87 77
12657.0910 -40332.0460 15.6630 112 96 87
12653.6780 -40332.0450 8.8220 123 101 96
12661.9340 -40332.0450 29.5400 94 80 83
12674.0660 -40332.0430 8.5860 100 87 81
12685.7430 -40332.0430 17.1510 67 64 64
12688.6400 -40332.0430 16.2250 124 111 94
12689.2960 -40332.0430 7.8280 166 141 128
12678.9920 -40332.0420 11.2390 162 129 107
12669.6410 -40332.0390 12.0960 129 106 87
12683.8450 -40332.0390 13.6770 73 65 69
12667.5460 -40332.0360 8.3000 121 100 81
12665.3210 -40332.0350 32.8480 115 108 102
12654.8500 -40332.0340 9.3910 149 130 107
12651.8470 -40332.0330 13.7260 78 64 66
12665.9300 -40332.0330 31.1440 153 147 136
12677.1260 -40332.0330 8.1880 111 91 82
12650.0980 -40332.0320 15.2050 125 107 93
12650.6510 -40332.0320 13.4310 148 128 118
12655.9000 -40332.0320 9.9000 137 123 100
12669.4490 -40332.0320 8.3110 127 106 94
12644.1780 -40332.0290 11.7970 176 142 116
12683.2190 -40332.0260 16.4710 155 127 98
12653.4270 -40332.0250 8.6780 146 130 107
12672.2100 -40332.0240 7.3080 73 66 63
12672.7960 -40332.0230 10.8580 153 124 103
12649.6150 -40332.0220 12.2990 119 102 93
12667.5130 -40332.0220 8.7130 118 95 85
12673.4150 -40332.0220 8.1830 120 102 94
12677.6360 -40332.0220 9.4840 108 93 80
12666.1950 -40332.0170 18.9260 135 122 113
12667.7510 -40332.0170 3.1820 136 112 93
12682.0630 -40332.0170 7.7940 70 63 58
12666.5820 -40332.0150 21.5910 86 82 82
12669.4280 -40332.0150 13.6530 112 87 77
12660.1210 -40332.0140 14.7880 133 122 115
12656.1860 -40332.0130 13.6820 103 87 74
12683.6580 -40332.0130 8.2290 100 84 71
12658.5230 -40332.0110 9.1450 161 138 123
12686.7260 -40332.0110 13.4490 102 84 83
12680.3510 -40332.0100 8.7520 90 70 65
12677.1900 -40332.0070 8.3650 110 90 84
12653.3340 -40332.0060 9.4420 117 96 95
12655.1490 -40332.0060 13.4550 156 136 126
12669.5020 -40332.0060 8.4180 127 105 93
12666.1730 -40332.0050 15.7070 151 143 124
12653.9320 -40332.0040 12.9960 108 88 81
12668.2240 -40332.0030 9.2860 100 87 80
12674.1270 -40332.0030 8.8120 146 126 110
12683.6140 -40332.0030 8.6190 91 77 63
12683.5980 -40332.0010 8.6600 90 77 67
12683.6300 -40332.0000 12.4370 111 100 103
12684.1010 -40332.0000 12.3480 120 102 91
12651.8760 -40331.9970 25.1450 126 111 95
12655.3070 -40331.9970 8.3410 130 117 97
12684.9890 -40331.9950 9.2360 90 77 76
12646.8870 -40331.9940 14.1440 151 133 113
12653.0160 -40331.9930 8.9700 149 121 103
12654.1150 -40331.9930 7.8320 134 112 92
12668.3740 -40331.9930 8.9420 124 102 90
12682.4090 -40331.9930 8.5940 147 118 88
12673.5240 -40331.9920 10.4350 149 122 103
12644.4510 -40331.9910 4.5590 157 132 111
12641.2340 -40331.9890 21.4830 90 75 69
12641.2340 -40331.9890 21.4830 90 75 69
12683.7010 -40331.9890 9.4660 56 50 52
12688.1060 -40331.9890 11.6840 98 85 81
12672.1860 -40331.9850 8.8600 133 105 90
12682.4550 -40331.9820 9.9430 94 79 70
12655.7710 -40331.9800 9.4260 124 107 92
12685.7490 -40331.9790 8.2450 124 105 90
12680.9250 -40331.9780 8.3640 105 81 72
12646.4780 -40331.9770 15.7040 150 130 116
12653.7670 -40331.9770 9.0830 131 108 96
12656.0450 -40331.9770 11.1890 143 127 111
12642.0190 -40331.9760 16.4220 114 94 87
12679.4270 -40331.9760 12.5960 105 89 77
12680.3550 -40331.9750 8.9550 91 70 67
12681.8140 -40331.9740 8.4760 168 133 109
12666.1880 -40331.9730 14.0470 107 83 74
12680.9410 -40331.9730 8.3690 104 79 70
12683.5150 -40331.9730 8.9600 106 95 79
12644.2620 -40331.9710 14.5720 132 117 109
12650.8780 -40331.9690 13.6820 111 96 95
12666.5350 -40331.9690 23.8380 146 139 132
12680.6920 -40331.9690 18.5940 77 67 64
12651.6570 -40331.9680 15.6190 87 77 71
12665.9130 -40331.9680 21.0550 85 81 79
12657.0700 -40331.9660 16.5250 101 82 78
12674.5750 -40331.9660 8.7390 144 120 100
12676.5730 -40331.9640 10.6950 156 126 110
12650.6200 -40331.9630 26.4780 97 87 84
12666.4330 -40331.9630 17.0690 78 63 61
12679.4930 -40331.9630 8.6120 111 90 82
12643.2280 -40331.9610 11.5340 93 86 80
12658.5150 -40331.9600 11.5330 164 137 117
12658.5200 -40331.9590 12.6570 164 138 115
12665.5180 -40331.9590 15.6130 159 152 142
12643.3220 -40331.9570 15.5740 112 99 83
12682.5340 -40331.9550 8.6790 102 89 83
12688.0580 -40331.9540 16.3930 124 109 99
12659.8370 -40331.9530 14.4810 133 116 100
12681.8600 -40331.9530 8.3750 126 106 93
12665.6510 -40331.9520 15.4980 100 92 77
12677.0120 -40331.9520 14.5260 144 120 105
12650.0790 -40331.9510 12.0480 89 78 79
12666.3380 -40331.9500 20.7350 89 81 84
12657.0930 -40331.9490 9.4560 104 85 78
12678.7570 -40331.9490 14.2450 83 79 76
12688.5770 -40331.9470 10.7880 77 69 67
12666.4960 -40331.9460 15.6370 106 83 78
12672.4930 -40331.9440 8.7320 126 106 94
12642.3830 -40331.9430 10.1360 96 79 72
12655.5890 -40331.9430 10.1890 114 102 83
12668.0100 -40331.9430 21.0150 155 132 117
12660.7300 -40331.9420 22.1190 84 71 73
12672.5480 -40331.9410 8.8720 125 105 86
12683.5320 -40331.9410 8.9720 115 101 83
12649.3490 -40331.9400 16.0690 164 145 133
12689.5970 -40331.9380 9.3670 99 87 84
12660.0460 -40331.9350 30.2650 129 116 102
12658.9820 -40331.9340 14.6520 82 68 68
12674.6300 -40331.9320 8.1910 148 122 94
12640.1110 -40331.9300 9.9320 67 60 60
12659.0650 -40331.9300 16.2060 129 114 102
12646.9560 -40331.9280 11.4890 100 82 76
12640.0850 -40331.9270 10.0000 71 61 60
12672.9880 -40331.9270 8.5810 143 117 98
12684.4110 -40331.9270 11.1550 122 110 102
12654.6530 -40331.9250 8.8020 110 92 78
12666.0570 -40331.9250 25.2370 128 119 117
12686.0170 -40331.9230 7.5070 124 104 72
12648.6200 -40331.9220 14.5210 112 101 86
12659.7760 -40331.9220 12.8780 100 83 74
12683.3970 -40331.9210 14.6590 77 64 60
12655.3580 -40331.9190 12.4970 121 104 88
12685.8800 -40331.9190 14.2570 101 86 77
12668.5920 -40331.9170 26.3310 45 41 43
12682.5810 -40331.9160 7.0680 131 116 108
12670.5810 -40331.9150 11.2000 105 84 79
12672.4960 -40331.9150 8.3520 91 71 68
12642.2530 -40331.9140 15.1600 69 64 57
12686.8950 -40331.9140 10.1190 127 111 104
12641.4290 -40331.9130 16.3380 97 84 79
12670.2690 -40331.9120 14.3350 132 110 97
12645.3560 -40331.9110 16.0500 108 97 89
12680.7680 -40331.9080 11.3910 69 61 57
12685.4780 -40331.9080 7.0700 121 93 85
12668.2810 -40331.9070 10.8420 85 65 69
12670.7180 -40331.9060 17.0520 112 91 81
12676.1910 -40331.9050 10.8020 137 114 99
12657.7280 -40331.9040 12.2380 160 138 115
12669.8420 -40331.9040 16.5710 151 126 107
12672.0030 -40331.9040 7.7650 137 109 94
12674.6410 -40331.9040 34.3410 53 45 45
12674.6410 -40331.9040 34.3410 53 45 45
12655.5830 -40331.9030 10.1420 108 89 79
12672.8970 -40331.9030 9.5320 152 123 101
12680.4920 -40331.9020 14.5850 105 88 81
12653.6420 -40331.9010 5.8380 162 143 131
12662.3120 -40331.9000 13.4960 89 74 73
12682.4510 -40331.9000 2.6430 130 103 94
12687.6800 -40331.9000 14.7750 69 63 64
12659.5780 -40331.8990 15.4250 138 116 105
12683.1870 -40331.8990 9.5320 107 97 79
12681.9070 -40331.8980 8.9990 119 98 88
12682.9700 -40331.8980 9.9160 109 98 82
12680.6490 -40331.8970 7.8590 60 54 52
12670.4610 -40331.8960 18.5160 158 138 116
12671.2440 -40331.8950 12.8340 111 91 79
12671.6910 -40331.8940 10.3730 131 107 89
12678.0000 -40331.8940 8.3330 116 95 85
12681.3270 -40331.8930 10.0600 94 77 73
12682.7080 -40331.8920 8.1880 175 151 113
12642.3930 -40331.8900 9.8760 98 75 74
12654.2670 -40331.8900 7.8530 157 134 112
12660.2150 -40331.8900 7.9690 154 126 109
12640.5100 -40331.8890 9.7570 90 78 66
12652.1140 -40331.8890 18.2490 128 106 103
12667.9890 -40331.8890 19.5800 158 134 115
12681.9800 -40331.8880 6.7100 60 50 53
12680.2720 -40331.8870 14.6350 75 65 59
12651.3330 -40331.8860 30.2490 96 91 81
12657.0920 -40331.8840 8.0370 106 88 82
12643.4590 -40331.8830 14.8290 163 135 112
12674.0170 -40331.8820 22.6840 70 56 60
12689.4610 -40331.8820 10.4760 135 116 103
12647.4470 -40331.8790 11.8980 142 125 105
12656.9730 -40331.8790 9.2850 83 65 64
12681.4810 -40331.8790 16.2770 90 76 76
12642.0080 -40331.8780 17.0490 110 97 86
12686.2870 -40331.8780 7.9490 119 99 89
12677.4110 -40331.8760 10.8640 102 89 81
12653.3070 -40331.8750 9.9910 146 120 104
12669.4540 -40331.8750 16.9870 98 84 79
12683.4480 -40331.8740 9.5800 89 74 62
12648.9500 -40331.8730 12.8440 125 111 98
12652.1640 -40331.8730 9.0820 149 120 104
12669.7570 -40331.8720 7.6700 71 60 57
12681.1400 -40331.8720 8.5250 142 117 97
12673.4690 -40331.8710 10.0730 127 116 101
12681.3070 -40331.8710 17.2290 66 59 52
12641.1900 -40331.8700 11.4210 106 88 82
12676.5860 -40331.8680 8.1700 145 118 104
12644.1260 -40331.8670 8.2680 165 135 113
12665.6400 -40331.8630 15.1190 65 56 54
12683.0300 -40331.8630 9.8220 93 81 81
12689.7340 -40331.8620 8.1160 110 90 82
12652.1470 -40331.8600 8.8150 149 119 104
12681.4550 -40331.8600 8.2480 160 122 97
12684.6200 -40331.8600 12.8780 58 54 58
12643.2430 -40331.8570 17.7570 124 112 105
12654.2430 -40331.8570 13.3200 72 61 61
12675.1680 -40331.8570 10.6160 138 118 100
12676.8600 -40331.8550 7.6180 107 93 90
12666.5430 -40331.8540 13.6300 70 62 55
12678.7640 -40331.8540 8.4570 137 113 92
12685.4360 -40331.8540 9.8780 124 101 88
12643.8860 -40331.8530 11.1800 96 85 75
12656.3640 -40331.8530 13.9400 111 104 89
12673.0040 -40331.8530 8.5790 144 113 90
12662.7350 -40331.8520 17.8810 120 107 101
12680.7410 -40331.8510 8.7390 75 62 56
12686.2150 -40331.8510 10.8400 95 84 86
12677.4810 -40331.8480 8.2860 79 67 67
12642.0480 -40331.8470 17.3230 107 96 82
12642.0480 -40331.8470 17.3230 107 96 82
12670.4850 -40331.8470 17.1830 153 121 109
12676.5890 -40331.8470 8.1540 139 120 99
12654.3730 -40331.8460 6.5760 177 163 139
12685.7550 -40331.8460 8.7410 117 100 88
12647.5540 -40331.8450 17.9240 86 72 66
12649.7290 -40331.8450 15.9740 93 78 77
12649.8600 -40331.8440 11.8690 135 121 100
12666.8550 -40331.8430 8.1970 114 94 89
12655.3270 -40331.8420 25.5440 124 111 110
12656.4650 -40331.8420 8.4800 127 109 92
12676.8460 -40331.8410 8.9900 147 122 105
12651.4900 -40331.8390 17.7230 146 123 116
12680.5900 -40331.8380 6.3430 83 70 66
12667.2060 -40331.8360 36.4890 94 86 88
12652.4710 -40331.8350 8.8660 137 115 99
