ply
format ascii 1.0
element vertex 1099
property float x
property float y
property float z
property uchar red
property uchar green
property uchar blue
element face 0
property list uchar int vertex_indices
end_header
12669.9760 -40295.1110 41.8410 250 201 156
12655.7850 -40295.1080 42.1250 252 217 96
12659.9670 -40295.1080 38.4490 193 137 94
12660.8280 -40295.1080 39.0900 214 177 153
12672.7050 -40295.1080 41.3030 158 119 105
12672.7050 -40295.1080 41.3030 158 119 105
12670.9760 -40295.1070 42.7370 254 227 193
12657.3220 -40295.1040 42.3930 252 204 104
12660.0980 -40295.1040 38.7590 248 190 156
12675.2210 -40295.1040 33.8030 191 145 103
12663.2470 -40295.1030 39.4010 252 196 144
12683.2230 -40295.1030 35.9670 243 219 200
12648.7500 -40295.0990 43.4530 212 184 97
12680.2340 -40295.0990 26.6470 237 230 178
12656.7100 -40295.0970 43.4460 253 245 175
12666.0770 -40295.0970 36.9090 163 101 78
12686.6110 -40295.0970 10.1110 203 161 126
12656.2670 -40295.0960 36.0640 219 160 121
12666.0820 -40295.0960 36.9520 162 101 75
12672.2670 -40295.0960 42.0980 251 201 150
12677.5040 -40295.0940 36.0980 172 130 94
12676.8050 -40295.0910 36.2850 210 166 116
12688.8540 -40295.0910 37.3390 226 198 178
12659.5380 -40295.0900 38.3920 192 111 104
12658.0830 -40295.0890 37.8050 211 135 96
12683.8880 -40295.0890 9.6740 88 68 53
12656.7170 -40295.0870 44.2580 254 254 240
12648.4680 -40295.0860 46.1970 255 201 100
12675.5670 -40295.0860 41.1530 251 234 203
12672.7870 -40295.0850 31.7830 196 165 142
12657.1500 -40295.0840 42.5950 231 162 103
12662.4360 -40295.0840 39.7160 226 177 147
12656.8420 -40295.0830 42.6690 254 253 201
12678.3960 -40295.0830 35.8830 218 179 127
12675.7440 -40295.0820 38.2850 217 213 176
12677.0360 -40295.0800 36.5590 170 127 100
12683.2520 -40295.0730 8.7310 116 86 71
12660.0910 -40295.0700 39.0530 161 100 65
12669.9710 -40295.0680 41.9210 250 205 159
12659.5340 -40295.0670 39.0080 241 161 105
12674.8500 -40295.0670 41.9830 246 221 194
12655.8420 -40295.0660 44.6290 254 252 208
12672.6170 -40295.0660 21.3780 171 146 99
12678.4180 -40295.0660 36.4650 214 152 105
12676.7520 -40295.0640 38.5890 134 90 67
12656.7870 -40295.0620 44.0250 255 240 158
12659.8080 -40295.0620 38.8120 191 128 79
12676.9910 -40295.0620 37.0900 161 123 93
12657.9620 -40295.0610 37.5520 230 158 114
12662.6020 -40295.0610 40.1110 241 192 154
12677.0130 -40295.0610 40.0430 253 249 234
12673.6880 -40295.0600 39.7110 226 177 136
12679.2980 -40295.0600 39.7390 205 196 181
12656.5790 -40295.0590 44.4170 254 237 161
12674.2770 -40295.0580 40.8720 235 186 138
12679.6050 -40295.0560 36.7630 140 95 69
12676.3110 -40295.0550 38.8190 117 84 70
12676.4110 -40295.0530 36.1220 189 150 119
12656.6480 -40295.0510 35.4550 144 72 58
12656.3630 -40295.0500 42.4990 195 127 65
12659.7520 -40295.0500 39.1290 242 161 101
12668.3130 -40295.0500 40.1770 119 83 76
12668.3130 -40295.0500 40.1770 119 83 76
12665.4550 -40295.0480 38.9550 217 150 109
12687.5090 -40295.0480 35.8510 247 239 224
12676.9910 -40295.0470 36.1710 164 119 95
12689.9140 -40295.0470 34.3860 167 117 102
12677.2320 -40295.0450 33.0140 198 147 116
12649.9980 -40295.0440 45.0260 199 143 81
12655.4230 -40295.0440 45.0080 254 249 181
12657.0900 -40295.0440 43.8980 230 162 84
12656.5620 -40295.0360 44.3970 255 221 128
12665.2560 -40295.0360 39.3680 224 171 142
12675.3520 -40295.0360 41.0830 186 132 89
12673.6670 -40295.0350 27.2750 169 132 89
12672.9260 -40295.0340 40.8040 239 195 137
12678.2480 -40295.0340 37.4290 184 117 92
12670.2180 -40295.0320 42.2210 188 140 93
12676.0820 -40295.0310 39.7440 248 213 162
12662.1890 -40295.0300 39.9420 247 195 161
12677.1620 -40295.0300 43.5380 228 164 125
12677.8990 -40295.0300 39.2420 171 122 88
12662.8080 -40295.0280 39.4680 251 194 151
12662.3050 -40295.0260 39.6030 185 117 96
12669.9140 -40295.0260 42.2210 208 155 126
12687.0200 -40295.0260 39.4970 235 171 145
12648.3810 -40295.0250 43.7550 204 146 83
12678.2190 -40295.0240 36.7600 164 121 81
12665.6000 -40295.0220 37.4450 233 175 133
12659.7140 -40295.0210 38.5860 179 111 64
12655.4940 -40295.0200 44.6840 249 247 215
12666.6550 -40295.0180 38.1630 179 121 92
12656.9030 -40295.0150 42.1950 220 155 90
12662.5740 -40295.0150 39.5820 196 159 131
12673.3260 -40295.0150 37.7870 158 124 98
12674.5750 -40295.0140 41.9210 243 207 172
12659.6790 -40295.0130 38.5340 182 119 68
12674.4040 -40295.0130 39.0930 170 130 104
12660.6960 -40295.0100 39.0250 187 125 110
12667.9860 -40295.0100 30.5410 163 107 56
12677.0460 -40295.0100 38.9280 243 203 148
12656.0560 -40295.0090 44.5720 224 153 101
12673.4720 -40295.0080 27.2350 239 233 224
12674.4670 -40295.0060 40.4070 186 143 98
12680.2870 -40295.0060 38.9450 156 125 97
12671.1760 -40295.0050 41.7030 167 130 107
12676.4210 -40295.0050 37.5790 235 188 141
12662.6830 -40295.0040 39.6010 253 198 167
12678.6070 -40295.0040 31.9610 220 164 117
12655.2660 -40295.0000 45.3260 254 254 249
12665.8420 -40295.0000 36.2630 159 89 66
12662.7860 -40294.9980 38.8930 248 185 133
12686.3290 -40294.9970 9.8500 143 113 87
12664.0670 -40294.9950 39.5740 172 127 109
12663.5300 -40294.9920 39.6200 242 172 131
12666.3930 -40294.9900 34.7380 134 78 60
12662.7090 -40294.9880 39.3480 248 198 158
12674.3960 -40294.9880 39.1390 174 130 99
12681.1300 -40294.9880 36.4720 250 213 184
12649.0630 -40294.9870 45.4870 254 254 221
12659.2530 -40294.9870 39.1000 204 126 87
12666.5790 -40294.9860 37.2990 146 94 62
12672.4600 -40294.9860 42.2030 194 146 106
12674.5560 -40294.9860 40.1290 189 138 102
12658.2570 -40294.9840 37.4180 248 174 120
12675.5320 -40294.9840 41.2760 254 241 210
12677.0690 -40294.9810 31.4050 242 192 133
12655.3270 -40294.9790 35.2400 207 137 94
12654.5710 -40294.9770 45.0140 195 137 101
12675.0130 -40294.9760 41.8200 247 224 193
12681.3640 -40294.9750 37.2920 247 215 186
12684.9160 -40294.9750 38.9550 206 147 103
12649.0650 -40294.9740 45.0660 253 254 190
12659.4360 -40294.9730 38.4250 216 157 130
12659.3860 -40294.9710 38.3360 226 164 136
12673.2350 -40294.9700 27.2540 154 135 115
12675.6170 -40294.9700 37.2370 218 170 134
12661.9010 -40294.9690 39.4730 144 103 94
12656.9350 -40294.9680 43.6760 224 152 79
12676.8090 -40294.9680 36.4170 220 165 125
12680.4800 -40294.9670 38.9240 247 244 242
12674.6500 -40294.9660 38.8230 174 137 102
12670.1720 -40294.9650 42.1230 226 180 141
12665.4640 -40294.9630 37.4150 220 181 148
12665.6720 -40294.9620 37.6790 206 162 129
12665.7130 -40294.9620 35.2670 177 115 76
12680.0020 -40294.9600 39.0230 253 216 193
12674.3670 -40294.9560 25.0930 214 162 110
12670.9390 -40294.9550 42.2590 254 223 185
12683.1730 -40294.9540 30.2870 252 243 227
12685.1890 -40294.9540 38.1210 253 231 214
12675.1050 -40294.9480 39.3670 188 163 131
12689.2460 -40294.9480 40.1640 202 163 152
12665.8990 -40294.9440 36.9580 153 92 53
12670.3720 -40294.9440 42.3630 254 223 191
12672.7340 -40294.9430 35.0980 165 121 96
12656.9060 -40294.9400 42.6090 254 237 164
12674.7940 -40294.9370 41.1040 252 216 171
12675.3440 -40294.9370 41.3440 190 144 100
12657.9340 -40294.9340 37.7640 162 97 66
12657.2650 -40294.9320 41.6890 195 136 64
12674.2120 -40294.9310 41.1540 234 183 141
12668.6940 -40294.9300 33.8910 151 96 62
12663.9380 -40294.9290 39.4120 154 103 89
12679.9310 -40294.9290 39.2270 241 234 221
12673.5020 -40294.9280 32.5810 206 164 130
12676.3810 -40294.9280 35.4660 197 148 105
12675.5740 -40294.9270 25.2060 187 141 107
12678.6740 -40294.9270 37.7450 238 183 125
12679.6070 -40294.9260 40.1340 209 172 148
12661.5250 -40294.9250 39.6600 247 191 159
12657.2740 -40294.9240 45.5030 253 252 185
12657.0540 -40294.9220 42.1540 181 122 64
12672.1750 -40294.9220 10.3320 117 78 64
12665.2510 -40294.9200 35.9360 182 116 65
12670.0100 -40294.9200 42.2600 253 211 165
12660.5920 -40294.9170 38.3580 121 77 63
12666.2700 -40294.9160 36.5360 145 93 68
12664.7660 -40294.9120 33.5210 196 153 114
12664.7660 -40294.9120 33.5210 196 153 114
12654.7340 -40294.9110 45.1100 254 200 154
12670.1150 -40294.9110 41.9250 221 175 127
12665.1420 -40294.9100 36.7450 223 178 144
12660.0140 -40294.9080 38.5840 172 109 79
12667.7310 -40294.9050 33.8340 163 119 79
12680.9810 -40294.9040 36.9120 240 192 150
12656.1270 -40294.9020 35.1820 171 112 52
12656.9940 -40294.9020 42.0500 168 113 63
12674.2770 -40294.9000 40.9170 163 115 84
12674.2770 -40294.9000 40.9170 163 115 84
12678.3990 -40294.8960 36.2910 206 154 110
12664.7660 -40294.8930 38.4860 197 127 85
12657.2010 -40294.8910 42.6910 253 232 128
12668.1950 -40294.8910 41.5760 251 207 167
12672.8660 -40294.8910 18.7220 93 74 65
12657.1910 -40294.8900 42.6750 253 232 129
12665.2290 -40294.8890 29.4510 206 150 100
12665.2290 -40294.8890 29.4510 206 150 100
12686.2590 -40294.8890 7.5570 116 82 63
12658.1470 -40294.8850 36.2870 215 138 85
12663.6390 -40294.8810 39.8970 251 196 156
12675.3460 -40294.8810 34.3970 202 164 125
12678.6070 -40294.8790 36.3370 252 214 171
12657.7560 -40294.8780 37.2930 181 104 71
12659.7820 -40294.8780 38.8100 230 162 104
12662.0000 -40294.8780 39.6550 147 108 97
12671.3500 -40294.8770 35.6770 200 154 107
12682.5430 -40294.8750 36.3320 205 178 141
12669.8290 -40294.8710 42.2010 174 123 102
12649.0330 -40294.8680 42.5320 145 106 85
12666.4680 -40294.8680 37.0680 157 100 63
12662.7070 -40294.8650 39.8170 225 177 131
12668.4210 -40294.8650 40.1830 221 178 127
12668.3000 -40294.8640 41.5460 250 225 188
12656.1060 -40294.8630 44.7770 253 252 216
12668.4830 -40294.8630 40.7140 156 106 80
12649.3600 -40294.8610 45.6940 254 211 120
12659.5680 -40294.8580 38.3660 244 176 144
12662.6320 -40294.8570 39.9160 206 147 133
12669.0140 -40294.8570 34.2300 141 97 79
12670.8960 -40294.8570 42.3150 251 213 183
12679.4690 -40294.8570 39.3830 198 200 184
12657.2680 -40294.8550 41.3220 177 117 69
12659.5640 -40294.8550 39.0620 201 123 85
12676.1260 -40294.8550 40.2400 250 221 175
12654.8950 -40294.8540 36.0360 80 52 48
12652.7860 -40294.8520 43.9020 252 222 128
12662.4250 -40294.8520 40.1300 247 209 175
12650.0900 -40294.8510 43.7050 145 108 84
12676.6060 -40294.8510 33.2380 232 186 143
12656.4840 -40294.8500 40.2170 190 140 70
12676.4580 -40294.8500 38.3020 186 139 103
12674.1650 -40294.8490 38.1190 151 109 79
12673.5630 -40294.8470 18.5750 122 81 60
12672.5610 -40294.8460 18.2640 129 95 56
12677.0310 -40294.8460 38.5030 230 194 139
12663.5160 -40294.8450 39.5150 246 188 143
12670.6900 -40294.8430 42.6990 175 126 101
12659.4530 -40294.8380 38.8740 209 134 92
12670.3430 -40294.8370 42.5840 250 204 160
12680.3650 -40294.8370 39.3590 255 220 194
12670.9730 -40294.8340 43.0310 244 196 157
12675.5350 -40294.8340 41.5760 254 229 194
12655.8230 -40294.8320 34.6170 187 120 58
12650.7490 -40294.8310 42.2320 186 111 75
12660.0760 -40294.8310 38.4320 170 123 84
12671.4150 -40294.8310 38.7270 166 123 102
12674.8540 -40294.8310 42.0200 179 146 120
12677.8160 -40294.8300 40.9330 200 137 96
12657.2250 -40294.8290 41.1670 170 125 51
12673.7930 -40294.8290 34.8120 157 122 84
12663.4440 -40294.8280 39.4620 252 201 167
12676.0840 -40294.8280 41.6550 247 217 175
12656.3110 -40294.8270 43.2880 255 239 153
12675.5800 -40294.8270 40.9250 197 159 123
12675.6170 -40294.8270 43.7900 186 151 128
12678.1580 -40294.8270 35.5550 161 119 76
12671.4820 -40294.8260 42.1050 161 111 81
12659.4130 -40294.8250 38.9050 189 113 78
12656.8540 -40294.8240 42.8460 254 220 151
12656.7590 -40294.8230 43.6460 253 221 123
12662.6400 -40294.8230 39.5550 221 159 122
12680.7670 -40294.8230 39.7510 250 220 200
12660.1710 -40294.8220 38.6350 147 89 66
12662.6780 -40294.8210 39.6260 207 141 117
12675.3490 -40294.8200 39.0410 117 86 51
12682.6240 -40294.8200 8.5520 120 85 67
12678.4020 -40294.8190 29.0230 124 97 80
12683.1570 -40294.8190 38.3380 242 221 208
12687.8420 -40294.8140 35.3380 193 131 49
12648.5190 -40294.8130 45.2180 255 205 123
12662.6340 -40294.8130 39.5250 211 147 121
12669.8960 -40294.8130 42.2110 175 127 92
12668.4320 -40294.8120 40.2710 222 174 131
12676.7750 -40294.8120 38.7630 213 184 134
12679.2910 -40294.8110 39.1290 187 153 116
12656.9770 -40294.8090 43.6010 254 215 113
12657.2640 -40294.8080 42.2720 133 93 69
12658.0910 -40294.8060 37.8020 236 161 114
12677.7150 -40294.8050 40.2550 246 225 201
12675.7070 -40294.8030 41.4980 254 225 192
12671.4630 -40294.8010 41.7880 167 117 87
12656.5420 -40294.7960 42.6250 254 239 143
12669.9690 -40294.7960 42.3530 187 135 106
12679.9280 -40294.7960 40.8660 250 226 200
12672.8730 -40294.7950 36.1760 162 120 100
12675.4110 -40294.7950 36.6360 201 149 100
12660.7940 -40294.7940 38.9490 223 164 129
12673.0460 -40294.7940 41.8810 132 93 93
12665.6170 -40294.7930 34.7830 197 115 74
12675.3830 -40294.7930 33.0780 178 134 103
12662.0400 -40294.7920 39.3990 166 113 99
12676.6720 -40294.7910 38.7880 219 173 138
12652.2760 -40294.7900 44.0830 239 187 85
12674.6320 -40294.7900 40.1100 186 127 96
12664.9720 -40294.7890 35.0110 196 133 91
12678.8480 -40294.7890 36.7280 214 173 124
12677.0980 -40294.7880 38.5620 244 204 150
12664.2770 -40294.7860 24.2010 157 100 62
12673.6940 -40294.7850 41.1870 135 93 72
12659.9930 -40294.7840 37.7650 122 72 64
12676.8260 -40294.7820 38.1130 134 89 68
12665.0990 -40294.7810 39.1840 199 131 92
12667.6160 -40294.7800 27.3920 206 145 89
12654.0480 -40294.7770 44.3110 201 138 96
12658.5090 -40294.7760 37.5550 203 125 90
12668.1430 -40294.7730 41.2500 214 161 118
12659.0080 -40294.7720 38.1930 164 103 86
12656.6540 -40294.7700 43.4560 255 235 147
12658.0030 -40294.7700 37.7020 214 139 105
12685.1610 -40294.7700 7.6060 96 72 61
12663.6250 -40294.7680 40.1140 222 174 136
12671.3800 -40294.7680 42.2810 162 114 83
12675.8280 -40294.7670 34.5990 143 106 82
12678.7730 -40294.7660 36.2210 126 91 65
12656.7250 -40294.7610 43.2380 254 208 116
12680.9730 -40294.7600 38.0330 229 202 183
12686.6430 -40294.7600 9.6630 114 78 61
12668.0690 -40294.7590 35.6700 143 84 43
12673.2270 -40294.7590 41.7010 167 130 103
12659.9590 -40294.7580 38.2290 140 90 61
12677.3930 -40294.7580 32.7900 152 112 84
12665.8350 -40294.7570 35.3120 181 118 77
12673.2990 -40294.7570 19.2820 139 113 89
12688.0660 -40294.7560 34.5280 252 228 190
12658.2280 -40294.7540 37.8480 214 140 91
12675.0870 -40294.7540 41.8220 218 160 114
12671.3810 -40294.7530 41.3960 164 114 84
12673.6710 -40294.7520 41.2570 235 185 142
12670.2570 -40294.7510 42.2030 246 206 163
12675.6420 -40294.7500 34.9910 205 158 111
12674.6000 -40294.7490 35.3980 167 130 84
12674.6000 -40294.7490 35.3980 167 130 84
12649.3740 -40294.7460 45.8720 254 250 182
12659.6350 -40294.7430 38.7950 241 163 112
12658.9290 -40294.7400 38.3220 171 105 80
12666.4290 -40294.7400 29.0100 176 133 72
12674.0830 -40294.7390 41.8000 124 84 66
12674.0830 -40294.7390 41.8000 124 84 66
12649.4430 -40294.7380 45.2420 246 221 91
12656.5890 -40294.7380 44.4280 254 253 191
12678.2570 -40294.7380 35.0720 219 158 108
12658.6160 -40294.7350 38.2980 221 142 85
12658.2010 -40294.7320 37.7410 239 161 101
12660.7860 -40294.7320 39.1150 237 196 166
12669.8850 -40294.7320 41.2800 148 103 81
12665.0370 -40294.7300 37.4110 191 121 83
12674.4600 -40294.7300 39.8510 194 144 111
12675.7450 -40294.7300 13.1550 144 111 94
12655.7820 -40294.7290 44.7250 254 206 121
12658.9080 -40294.7290 38.3430 215 140 101
12649.3180 -40294.7280 45.8220 254 251 183
12674.8590 -40294.7280 41.2960 192 150 126
12663.9920 -40294.7270 39.3460 164 115 99
12655.3720 -40294.7250 45.2570 254 254 230
12659.8560 -40294.7250 37.5310 107 68 61
12664.7540 -40294.7250 39.1220 248 186 141
12656.2440 -40294.7220 36.0480 154 86 50
12657.1120 -40294.7220 43.1830 255 239 166
12657.1120 -40294.7220 43.1830 255 239 166
12667.5180 -40294.7220 38.1050 155 114 78
12669.9700 -40294.7220 41.3470 151 107 97
12674.5860 -40294.7210 41.4940 241 193 162
12658.5960 -40294.7200 38.2050 239 178 153
12661.2470 -40294.7150 39.2900 175 125 104
12671.4050 -40294.7150 36.3100 167 123 98
12653.4550 -40294.7130 44.2640 177 124 76
12678.1590 -40294.7130 36.5670 249 201 134
12674.2990 -40294.7100 40.9300 153 111 82
12654.4490 -40294.7090 45.1370 253 247 216
12656.6110 -40294.7090 43.0380 254 207 108
12663.2470 -40294.7070 39.8830 232 192 158
12653.0670 -40294.7050 43.6950 177 119 75
12658.0130 -40294.7020 37.4600 213 137 90
12677.0570 -40294.7020 32.1620 171 117 80
12677.0570 -40294.7020 32.1620 171 117 80
12651.6880 -40294.7010 43.9340 183 120 74
12672.7730 -40294.7000 29.4530 219 161 122
12674.8460 -40294.6970 40.2470 229 180 133
12674.4090 -40294.6960 40.7900 214 162 125
12648.8210 -40294.6950 43.5270 219 158 74
12670.0810 -40294.6950 32.1920 102 90 82
12670.1760 -40294.6950 41.9170 246 203 153
12656.7200 -40294.6930 36.0860 174 104 72
12688.0130 -40294.6910 34.7450 252 228 194
12656.4550 -40294.6890 35.6410 189 120 66
12662.5230 -40294.6870 39.8100 237 183 158
12683.8360 -40294.6860 35.6250 173 157 138
12655.8110 -40294.6830 45.3320 239 229 151
12659.3930 -40294.6800 39.1600 236 173 129
12655.6480 -40294.6780 44.9080 249 188 100
12656.2680 -40294.6740 44.4720 254 232 137
12662.4980 -40294.6720 39.4610 248 211 172
12675.2220 -40294.6710 41.6980 253 223 182
12655.0690 -40294.6690 45.5070 254 242 207
12655.1490 -40294.6680 45.4070 254 247 202
12673.1650 -40294.6680 21.4040 216 193 165
12677.0420 -40294.6670 30.9300 246 192 128
12683.5880 -40294.6640 7.8260 138 112 82
12680.4120 -40294.6630 34.4300 166 118 82
12679.5880 -40294.6620 39.2320 209 175 155
12655.9940 -40294.6610 44.3390 245 174 98
12656.3850 -40294.6610 35.5040 188 119 62
12656.3850 -40294.6610 35.5040 188 119 62
12666.4020 -40294.6610 36.1770 182 134 100
12673.3410 -40294.6590 41.7290 193 136 97
12654.2580 -40294.6580 44.8730 253 245 215
12655.9920 -40294.6580 44.3490 241 165 94
12675.7090 -40294.6580 38.1760 171 123 83
12681.7490 -40294.6580 25.1740 225 177 137
12654.2380 -40294.6570 44.8510 253 245 207
12656.7050 -40294.6540 40.1190 96 77 65
12672.9090 -40294.6540 41.9070 152 124 89
12675.4040 -40294.6530 41.3650 247 219 188
12675.4040 -40294.6530 41.3650 247 219 188
12669.9800 -40294.6520 42.6540 235 192 147
12674.6750 -40294.6520 41.4160 238 212 172
12662.2890 -40294.6490 39.6240 170 121 113
12662.3650 -40294.6490 39.2780 213 182 157
12669.2360 -40294.6490 41.3350 201 150 134
12666.1670 -40294.6480 36.7680 142 85 58
12683.6930 -40294.6480 9.0950 107 84 67
12656.7940 -40294.6460 42.6900 255 242 170
12672.3720 -40294.6460 18.9310 148 130 85
12658.2560 -40294.6440 37.6140 235 155 79
12658.3520 -40294.6430 37.2420 252 184 145
12674.9510 -40294.6430 38.7340 173 126 99
12687.0980 -40294.6420 35.0730 247 242 228
12667.5960 -40294.6400 27.0800 204 143 91
12671.1400 -40294.6400 41.4340 148 102 73
12688.6500 -40294.6390 33.8450 217 173 148
12669.6450 -40294.6370 41.7330 250 216 180
12669.7080 -40294.6340 41.4760 165 118 101
12665.0170 -40294.6310 34.7290 234 168 80
12679.3270 -40294.6310 39.5090 167 138 109
12666.1280 -40294.6300 36.9900 145 91 64
12669.6410 -40294.6290 41.3020 238 200 164
12673.0120 -40294.6290 41.5030 149 114 91
12655.9330 -40294.6260 44.5160 242 188 90
12675.1000 -40294.6260 42.1080 209 153 103
12650.6830 -40294.6250 43.5690 189 119 67
12658.8600 -40294.6250 38.4620 180 101 91
12669.6580 -40294.6250 41.7630 245 211 181
12676.8090 -40294.6250 38.5760 232 194 149
12659.9210 -40294.6240 39.4230 237 171 120
12669.7150 -40294.6240 41.4930 166 123 100
12670.1310 -40294.6230 42.4390 196 146 113
12655.9090 -40294.6200 44.4750 238 184 88
12656.7940 -40294.6180 43.1260 241 162 91
12684.4640 -40294.6180 35.6330 252 251 251
12652.7310 -40294.6160 43.5390 171 117 70
12668.7520 -40294.6130 39.7560 101 66 49
12665.6910 -40294.6110 37.2360 218 148 89
12662.1740 -40294.6100 39.1170 178 140 121
12666.6140 -40294.6080 40.4020 214 162 124
12674.6050 -40294.6070 37.5370 86 64 55
12651.7060 -40294.6060 42.4130 247 207 111
12651.7060 -40294.6060 42.4130 247 207 111
12665.7610 -40294.6030 39.1500 167 98 76
12675.2050 -40294.6030 41.8300 252 226 197
12675.8000 -40294.6030 27.6730 185 139 94
12661.5690 -40294.6020 39.9100 241 179 145
12660.7860 -40294.5990 39.0950 241 204 176
12658.8840 -40294.5980 38.6880 159 92 69
12668.7240 -40294.5980 40.6950 138 85 74
12675.5050 -40294.5970 40.0010 155 108 91
12673.1670 -40294.5960 21.2580 214 192 160
12676.0080 -40294.5960 40.3870 178 141 102
12670.0520 -40294.5950 42.2230 206 157 116
12673.3030 -40294.5950 36.7520 166 128 86
12673.3030 -40294.5950 36.7520 166 128 86
12656.5770 -40294.5940 36.0900 199 127 83
12674.5560 -40294.5940 38.8180 192 146 103
12655.9490 -40294.5930 35.9320 168 96 47
12673.8390 -40294.5910 40.8770 240 196 155
12661.1650 -40294.5900 39.6090 231 182 150
12665.1200 -40294.5900 25.4500 240 171 110
12663.8010 -40294.5890 40.6510 254 220 195
12669.7490 -40294.5890 42.3370 187 133 112
12679.2400 -40294.5890 35.6640 162 105 76
12656.5890 -40294.5880 36.1040 199 127 82
12677.6050 -40294.5880 40.2490 221 172 128
12675.1380 -40294.5860 41.6350 247 208 165
12675.3380 -40294.5860 41.7160 233 180 128
12660.4370 -40294.5850 38.8580 152 89 70
12671.3700 -40294.5850 41.3050 156 104 78
12657.0190 -40294.5840 42.3260 164 111 66
12657.0190 -40294.5840 42.3260 164 111 66
12668.4130 -40294.5840 41.6440 254 208 171
12649.8100 -40294.5830 44.9810 198 123 97
12655.8020 -40294.5830 34.4820 191 121 61
12655.2860 -40294.5800 45.3180 254 198 119
12665.3010 -40294.5800 39.3880 240 204 184
12665.3500 -40294.5790 38.1220 157 92 71
12665.9270 -40294.5790 38.9150 180 120 92
12676.5830 -40294.5770 39.8280 232 182 134
12662.3340 -40294.5760 38.9640 210 180 146
12656.9920 -40294.5740 42.6630 237 191 70
12657.1010 -40294.5740 42.4590 196 147 84
12665.5900 -40294.5740 35.9870 156 96 69
12665.4890 -40294.5730 38.4620 182 109 84
12668.7860 -40294.5720 37.1220 184 137 107
12659.1660 -40294.5710 38.6730 228 176 129
12681.2970 -40294.5710 36.3500 240 200 176
12676.9170 -40294.5680 40.4240 251 223 187
12677.9170 -40294.5680 37.0570 237 178 133
12666.3290 -40294.5660 34.3450 171 111 75
12648.2530 -40294.5650 46.0730 254 254 200
12656.3680 -40294.5640 44.3200 235 165 85
12659.1500 -40294.5630 38.6480 225 169 126
12655.4790 -40294.5600 34.4720 162 93 51
12655.4790 -40294.5600 34.4720 162 93 51
12669.9500 -40294.5580 42.5240 236 188 151
12675.5630 -40294.5570 41.4890 164 135 100
12676.0350 -40294.5570 39.6010 235 194 147
12656.7710 -40294.5560 36.0680 170 96 55
12674.4500 -40294.5560 41.1350 246 196 146
12649.0540 -40294.5550 44.3030 196 133 75
12673.8790 -40294.5550 18.5250 171 138 107
12680.7250 -40294.5550 38.6580 230 216 209
12674.4540 -40294.5530 41.1510 247 199 150
12673.8640 -40294.5520 39.9240 151 114 80
12684.5730 -40294.5510 31.3170 251 248 247
12655.1720 -40294.5490 44.7650 252 252 193
12675.1760 -40294.5480 40.9340 247 208 158
12673.9450 -40294.5460 27.8980 242 206 159
12655.6540 -40294.5430 44.8450 251 187 118
12668.4330 -40294.5430 41.1910 248 194 139
12670.4680 -40294.5430 41.8260 232 183 146
12673.3220 -40294.5430 41.6410 166 123 104
12666.3970 -40294.5420 28.6140 177 133 69
12670.1190 -40294.5420 41.4480 226 171 125
12670.1190 -40294.5420 41.4480 226 171 125
12648.9080 -40294.5410 46.1640 255 231 166
12665.5830 -40294.5400 36.0400 147 90 65
12661.9470 -40294.5380 39.9410 239 199 161
12675.0030 -40294.5370 42.1250 248 218 190
12669.8990 -40294.5350 42.3550 239 192 151
12678.1760 -40294.5350 40.3840 200 151 115
12658.7480 -40294.5340 38.2640 248 202 177
12669.8610 -40294.5340 42.1240 248 199 146
12655.8020 -40294.5320 35.7280 164 91 59
12682.1750 -40294.5320 37.1580 213 179 159
12673.3710 -40294.5310 10.4260 120 100 50
12655.3840 -40294.5290 45.1080 255 215 132
12656.3360 -40294.5270 42.7960 208 135 54
12672.8740 -40294.5260 40.6960 150 107 90
12655.6240 -40294.5230 45.5700 254 233 154
12664.1210 -40294.5230 37.7170 249 206 160
12670.4250 -40294.5220 37.2060 135 97 78
12661.7990 -40294.5210 39.5050 229 173 144
12666.2000 -40294.5210 23.9900 159 101 55
12669.9070 -40294.5210 41.0500 128 94 79
12655.9550 -40294.5205 44.3720 252 241 146
12655.9550 -40294.5205 44.3720 251 240 142
12679.7710 -40294.5200 39.2310 252 223 191
12680.6990 -40294.5200 39.1180 247 243 235
12655.6180 -40294.5190 45.5630 254 234 155
12663.2900 -40294.5190 40.2270 121 76 59
12673.2100 -40294.5150 41.9070 219 178 133
12683.8650 -40294.5150 9.0360 138 110 92
12649.6060 -40294.5140 44.7030 212 136 96
12669.1730 -40294.5140 41.2000 175 150 135
12669.6870 -40294.5110 41.4760 240 199 162
12676.4130 -40294.5110 32.3440 167 126 94
12660.5890 -40294.5080 39.1230 146 86 70
12673.2690 -40294.5080 42.6720 107 72 60
12681.9440 -40294.5070 33.9710 246 228 210
12673.5230 -40294.5050 41.7360 246 234 213
12647.7390 -40294.5020 41.9640 165 110 52
12665.3510 -40294.5020 38.6180 175 116 88
12674.4360 -40294.5010 41.2850 228 185 138
12662.1220 -40294.5000 39.4330 183 114 97
12676.5700 -40294.4980 37.9780 224 179 137
12682.4290 -40294.4980 33.9120 217 164 124
12682.4290 -40294.4980 33.9120 217 164 124
12671.3600 -40294.4970 42.3190 236 184 128
12659.7130 -40294.4960 38.9720 240 172 126
12664.6830 -40294.4960 39.7850 249 218 181
12662.8390 -40294.4950 39.1440 249 220 194
12674.2100 -40294.4950 36.8220 154 113 89
12657.1920 -40294.4930 43.2350 253 254 200
12658.7770 -40294.4930 37.9270 236 171 131
12675.0190 -40294.4930 39.0560 127 89 64
12678.6160 -40294.4930 37.4770 198 144 110
12675.4230 -40294.4920 41.5360 249 223 192
12673.3140 -40294.4910 41.3440 241 191 153
12679.4960 -40294.4910 38.8280 215 197 187
12661.3660 -40294.4900 38.8310 179 123 89
12669.1440 -40294.4900 41.1000 129 87 64
12666.2680 -40294.4880 39.4150 217 166 127
12649.7500 -40294.4840 44.5650 254 236 136
12669.8250 -40294.4840 41.2940 128 89 70
12656.7000 -40294.4830 43.2790 236 166 90
12676.8610 -40294.4830 37.7070 250 221 183
12676.6180 -40294.4810 37.4610 215 171 127
12656.9190 -40294.4800 36.3060 158 89 50
12667.9240 -40294.4790 41.3630 177 129 103
12683.4000 -40294.4740 9.6940 193 157 131
12665.1350 -40294.4730 38.9020 244 222 207
12661.4880 -40294.4700 39.3520 217 176 148
12661.2460 -40294.4680 39.3840 232 180 150
12665.9420 -40294.4650 36.1590 153 98 76
12665.6280 -40294.4640 36.3650 158 95 64
12672.3090 -40294.4630 41.2680 153 106 83
12675.0700 -40294.4620 40.2670 243 203 148
12683.6500 -40294.4580 10.3370 164 127 108
12663.3610 -40294.4550 39.7310 253 233 218
12667.9660 -40294.4550 41.4530 169 118 91
12675.0110 -40294.4550 38.4640 173 124 92
12666.1800 -40294.4540 39.1960 230 170 120
12661.7580 -40294.4500 39.4600 189 123 95
12676.2570 -40294.4500 39.6600 213 141 114
12674.8180 -40294.4490 40.9320 254 232 196
12669.7320 -40294.4460 41.6400 247 205 159
12686.0390 -40294.4460 37.1650 248 212 182
12674.8190 -40294.4450 40.9080 255 231 193
12675.5200 -40294.4450 42.9620 204 153 115
12655.7650 -40294.4440 44.8690 254 250 189
12669.6720 -40294.4440 41.0660 236 189 143
12669.6720 -40294.4440 41.0660 236 189 143
12678.0140 -40294.4440 37.9500 213 168 122
12680.4190 -40294.4440 39.4420 240 186 157
12663.0500 -40294.4430 39.3410 249 229 212
12675.2630 -40294.4430 38.2380 154 107 81
12675.4930 -40294.4430 32.8180 167 121 101
12676.8270 -40294.4430 39.5100 253 228 199
12657.1860 -40294.4420 36.7680 156 95 54
12674.5580 -40294.4420 34.5800 171 125 91
12656.3990 -40294.4400 36.1240 231 156 90
12676.9420 -40294.4400 41.7090 153 98 66
12670.5400 -40294.4390 40.9130 135 93 71
12685.0280 -40294.4370 8.7080 92 67 57
12649.4680 -40294.4350 46.5740 251 237 143
12670.0230 -40294.4350 41.9430 203 148 104
12663.2030 -40294.4280 40.1410 254 213 181
12669.8620 -40294.4280 41.3720 138 99 81
12675.7710 -40294.4260 35.6870 159 111 87
12686.6590 -40294.4250 36.4710 226 153 85
12670.0440 -40294.4240 41.5480 181 137 103
12651.1470 -40294.4230 42.9020 223 160 89
12668.8210 -40294.4190 40.6250 202 157 123
12672.8510 -40294.4190 42.0380 162 123 117
12668.8170 -40294.4180 40.6330 207 159 126
12671.9480 -40294.4170 41.9830 149 106 72
12673.2200 -40294.4170 41.6990 242 209 179
12686.1740 -40294.4160 36.9520 238 203 175
12669.5890 -40294.4130 41.6090 229 182 145
12671.1840 -40294.4130 40.0570 166 120 97
12676.9840 -40294.4120 39.0560 249 210 175
12656.5780 -40294.4110 43.3620 253 253 194
12655.9350 -40294.4100 36.2370 207 129 82
12664.9710 -40294.4090 38.9860 253 212 174
12669.9810 -40294.4040 41.2560 127 84 57
12662.0360 -40294.4000 40.1420 232 189 151
12686.4300 -40294.3980 38.7570 250 193 133
12652.7910 -40294.3970 45.2450 183 117 65
12666.9100 -40294.3960 35.8400 151 96 68
12674.7870 -40294.3950 40.6230 253 230 197
12680.3450 -40294.3940 39.0310 252 237 215
12662.3130 -40294.3920 39.5950 254 210 179
12677.3930 -40294.3880 36.6510 200 149 110
12657.9770 -40294.3870 37.4520 169 101 62
12656.9510 -40294.3860 41.8570 208 152 89
12682.0190 -40294.3860 5.6080 178 138 90
12665.6920 -40294.3820 30.0110 210 141 90
12671.6900 -40294.3820 42.0310 249 208 164
12671.6900 -40294.3820 42.0440 249 210 167
12656.9540 -40294.3810 41.8630 208 150 89
12679.3810 -40294.3810 39.3820 207 158 123
12680.0860 -40294.3780 39.4270 244 188 151
12661.9490 -40294.3770 39.4010 242 171 127
12666.9790 -40294.3760 39.6070 171 123 92
12673.2440 -40294.3750 17.5660 134 121 112
12673.7740 -40294.3740 41.5440 178 131 104
12677.0290 -40294.3720 34.1790 218 169 121
12655.7230 -40294.3710 45.3000 254 250 176
12677.3960 -40294.3710 36.6240 197 143 110
12669.8000 -40294.3690 41.8830 245 198 155
12671.5260 -40294.3690 42.3530 254 225 183
12650.0120 -40294.3680 46.6450 252 191 111
12656.6150 -40294.3670 43.7400 242 172 99
12648.3820 -40294.3660 46.2360 255 212 129
12655.7580 -40294.3660 35.1000 207 130 80
12655.7580 -40294.3630 35.0950 198 124 75
12676.0510 -40294.3620 35.1680 205 157 102
12655.7080 -40294.3610 34.6110 159 89 50
12656.4130 -40294.3570 43.1320 253 253 199
12659.7680 -40294.3560 38.8010 188 119 90
12668.2610 -40294.3560 41.4060 158 106 77
12655.7280 -40294.3530 35.0310 209 134 81
12651.5650 -40294.3520 43.3890 179 115 57
12658.2190 -40294.3520 37.8880 207 126 76
12662.2540 -40294.3520 39.6850 237 175 147
12683.0300 -40294.3520 8.8860 155 119 90
12669.5240 -40294.3510 41.5630 237 206 179
12685.4390 -40294.3510 7.8020 117 84 69
12689.5780 -40294.3510 36.4150 242 172 131
12662.7770 -40294.3500 40.7550 242 166 135
12679.8950 -40294.3500 38.5380 242 238 225
12680.9630 -40294.3500 36.9900 249 229 212
12656.4810 -40294.3490 43.9680 179 118 75
12661.2780 -40294.3490 38.8350 140 89 76
12671.1800 -40294.3490 28.8030 130 92 73
12674.7950 -40294.3470 40.4900 255 224 183
12674.1920 -40294.3460 42.3350 254 234 198
12689.5840 -40294.3460 36.3660 236 168 129
12689.2330 -40294.3420 36.1590 212 141 107
12663.6650 -40294.3410 38.2430 254 231 212
12655.6040 -40294.3400 45.3710 251 182 104
12656.0490 -40294.3380 44.1290 207 139 63
12655.9030 -40294.3370 35.9460 211 136 93
12675.3150 -40294.3370 32.2620 165 123 89
12675.7800 -40294.3370 39.7520 250 209 162
12686.5690 -40294.3360 35.9000 206 147 91
12671.8020 -40294.3350 41.6860 234 203 153
12671.8020 -40294.3350 41.6860 234 203 153
12675.5100 -40294.3330 39.2360 209 153 105
12677.1530 -40294.3330 39.2870 254 237 213
12649.5500 -40294.3320 45.9940 254 248 184
12661.4620 -40294.3320 38.7900 167 112 90
12657.6670 -40294.3300 42.3560 173 125 66
12673.2620 -40294.3290 39.5150 156 114 92
12655.3460 -40294.3260 44.5790 253 254 217
12667.8960 -40294.3260 41.2070 251 208 175
12656.7630 -40294.3250 36.1840 151 86 43
12656.6590 -40294.3230 35.8690 149 86 47
12679.7300 -40294.3220 38.2290 123 91 87
12682.8580 -40294.3210 30.9640 185 135 102
12640.7030 -40294.3200 28.2400 71 60 45
12676.8980 -40294.3180 36.0130 159 109 103
12655.1860 -40294.3160 45.7030 254 252 212
12662.1510 -40294.3160 38.6770 233 170 128
12685.5670 -40294.3160 7.9980 89 65 58
12641.4860 -40294.3150 40.7320 123 88 73
12656.1220 -40294.3150 42.7190 253 252 189
12680.3550 -40294.3150 37.5390 162 126 92
12662.0850 -40294.3130 38.9010 218 176 153
12679.3280 -40294.3130 38.8190 152 118 108
12659.6240 -40294.3120 38.2620 145 93 64
12665.0420 -40294.3120 39.0950 230 172 141
12673.4150 -40294.3120 43.1530 248 199 156
12676.7940 -40294.3110 38.8630 252 231 200
12686.0170 -40294.3100 9.3610 109 73 57
12665.4940 -40294.3080 37.9210 164 101 73
12674.4320 -40294.3080 42.0510 254 216 170
12674.4320 -40294.3080 42.0510 254 216 170
12676.8230 -40294.3070 40.1680 248 227 188
12676.7060 -40294.3060 38.0360 132 95 77
12668.6290 -40294.3040 42.0960 244 193 138
12671.9960 -40294.3000 35.1530 140 133 125
12663.0360 -40294.2990 22.6210 153 98 55
12665.6240 -40294.2990 36.2750 210 152 105
12673.1600 -40294.2990 41.6940 191 148 112
12668.7330 -40294.2980 40.2560 215 173 136
12661.3650 -40294.2970 39.6220 229 176 142
12676.3770 -40294.2960 37.9030 194 136 106
12689.4780 -40294.2960 35.8830 195 131 91
12661.6470 -40294.2940 39.4890 232 162 121
12659.6100 -40294.2930 38.6860 235 172 135
12655.1140 -40294.2910 45.5770 254 252 198
12662.6680 -40294.2890 39.9640 253 229 208
12663.5590 -40294.2890 40.4350 248 188 152
12674.2090 -40294.2890 40.8650 178 134 106
12656.5580 -40294.2880 43.4210 255 225 126
12664.0950 -40294.2880 40.1640 249 203 165
12667.8490 -40294.2880 41.5410 248 216 191
12675.7880 -40294.2880 38.6750 166 120 77
12676.9940 -40294.2880 39.5010 236 183 138
12683.4750 -40294.2870 32.2320 239 227 216
12660.9680 -40294.2860 39.4640 248 195 157
12655.9420 -40294.2830 35.9790 224 145 96
12655.9420 -40294.2830 35.9790 224 145 96
12665.8900 -40294.2830 32.8120 135 81 48
12659.8110 -40294.2810 38.5500 167 102 72
12655.4910 -40294.2790 35.8690 197 112 76
12675.5020 -40294.2790 42.8690 194 155 107
12686.6370 -40294.2790 35.4460 211 152 89
12656.0390 -40294.2770 41.4430 170 112 66
12669.5200 -40294.2770 41.5280 208 183 142
12665.5120 -40294.2760 36.0470 213 149 106
12665.5120 -40294.2760 36.0470 213 149 106
12672.5190 -40294.2740 39.9080 139 99 81
12656.2180 -40294.2730 43.7600 163 114 68
12660.3620 -40294.2730 39.3070 199 148 106
12676.6220 -40294.2720 37.6020 223 179 136
12677.0280 -40294.2710 37.8400 199 173 110
12666.4830 -40294.2700 39.3410 164 111 80
12669.7500 -40294.2700 41.4570 225 182 149
12676.5710 -40294.2670 41.0810 227 171 132
12676.9820 -40294.2670 39.5470 243 199 155
12671.5910 -40294.2660 41.9790 254 236 201
12675.1060 -40294.2660 39.4710 128 96 70
12663.4800 -40294.2650 40.2550 235 170 136
12663.4800 -40294.2650 40.2550 235 170 136
12665.5500 -40294.2640 38.3990 201 148 118
12674.9800 -40294.2640 36.3790 170 121 92
12680.0210 -40294.2630 39.2060 247 225 210
12686.4210 -40294.2610 35.8830 243 209 185
12678.3520 -40294.2600 38.8830 169 160 106
12662.6180 -40294.2570 39.8210 254 232 217
12668.6580 -40294.2540 41.0160 203 145 110
12676.1060 -40294.2540 38.8470 231 185 152
12676.3970 -40294.2540 37.3120 152 114 91
12683.0390 -40294.2540 9.8940 192 164 129
12661.5830 -40294.2520 39.3460 231 163 124
12679.8850 -40294.2510 39.5750 198 148 125
12680.0360 -40294.2500 39.1840 248 226 209
12680.0360 -40294.2500 39.1840 248 226 209
12663.4890 -40294.2490 40.2010 240 175 144
12677.2140 -40294.2480 38.9530 254 231 195
12651.7300 -40294.2460 44.0450 227 181 118
12676.5710 -40294.2460 39.3290 251 231 192
12656.9960 -40294.2450 40.5630 106 70 54
12674.0490 -40294.2450 40.2830 148 108 90
12673.1900 -40294.2440 41.8650 188 146 113
12683.2500 -40294.2440 8.7020 132 107 87
12655.4920 -40294.2410 34.2800 156 90 45
12661.7760 -40294.2410 39.3700 217 147 111
12672.9290 -40294.2400 41.1520 124 91 77
12679.9680 -40294.2390 38.5600 221 184 159
12672.2910 -40294.2370 33.4780 136 108 92
12661.4270 -40294.2360 39.7460 231 178 148
12675.6140 -40294.2340 39.3930 244 206 161
12673.4120 -40294.2320 41.7660 150 117 95
12677.8870 -40294.2320 39.8850 235 170 127
12689.8130 -40294.2310 37.7560 174 124 109
12675.3390 -40294.2290 41.8150 171 139 119
12679.4820 -40294.2290 37.6860 107 83 80
12661.5030 -40294.2280 39.1780 233 168 127
12662.8710 -40294.2280 39.7430 254 222 199
12649.6670 -40294.2270 45.5330 250 250 174
12676.8500 -40294.2270 40.0370 247 224 185
12656.3990 -40294.2240 36.0140 166 90 58
12640.7310 -40294.2220 28.3380 167 139 103
12674.6450 -40294.2220 40.1490 250 225 187
12672.3430 -40294.2210 41.5330 234 183 135
12655.9000 -40294.2190 45.5550 219 149 85
12656.1190 -40294.2190 43.8170 230 194 79
12656.8980 -40294.2190 42.6410 251 206 137
12673.1910 -40294.2180 41.2050 196 151 118
12682.8390 -40294.2180 40.7060 200 166 130
12655.7850 -40294.2170 36.0290 229 151 96
12673.7470 -40294.2170 40.1800 218 171 126
12669.1490 -40294.2160 40.9260 136 91 62
12669.5090 -40294.2160 41.6220 238 209 185
12666.0140 -40294.2140 39.0520 175 118 92
12655.7920 -40294.2130 36.0410 235 155 97
12677.3530 -40294.2130 39.4480 253 231 196
12656.4200 -40294.2120 35.2820 162 101 59
12676.3720 -40294.2120 41.6750 213 196 160
12656.2480 -40294.2110 44.4820 244 210 97
12660.2590 -40294.2110 39.0740 238 177 129
12659.1190 -40294.2090 38.8440 248 198 160
12660.2420 -40294.2090 39.0540 221 162 120
12668.7990 -40294.2080 40.7820 160 118 96
12673.5230 -40294.2080 42.9210 249 233 200
12660.9180 -40294.2070 38.8240 127 74 61
12667.8110 -40294.2070 41.1670 249 199 156
12662.0670 -40294.2060 39.3840 241 166 124
12673.5190 -40294.2060 41.5570 241 196 137
12669.5060 -40294.2050 41.6350 250 221 199
12689.7310 -40294.2050 35.2420 230 153 112
12673.2080 -40294.2040 41.9600 186 144 115
12681.4000 -40294.2030 33.9110 203 146 113
12661.0370 -40294.2010 39.6160 250 200 170
12661.4260 -40294.1970 38.9960 218 152 123
12661.9390 -40294.1940 38.7670 184 125 108
12677.4160 -40294.1940 30.4990 221 178 124
12660.8020 -40294.1910 39.4390 125 81 64
12668.2670 -40294.1900 41.3730 246 223 184
12673.3280 -40294.1900 41.1050 209 160 124
12657.6190 -40294.1880 37.1780 231 152 97
12675.2440 -40294.1880 41.1100 226 182 135
12656.5870 -40294.1870 41.7530 249 194 106
12677.5930 -40294.1870 40.1320 195 139 96
12673.8440 -40294.1860 41.4890 237 190 154
12673.9290 -40294.1860 33.6950 166 120 81
12679.2340 -40294.1850 29.8040 203 164 105
12659.7010 -40294.1840 38.9090 237 181 144
12655.6060 -40294.1830 35.3920 209 132 76
12660.2960 -40294.1830 39.1440 236 179 132
12681.4220 -40294.1820 39.7920 239 197 166
12682.8440 -40294.1810 36.6210 250 248 246
12675.0760 -40294.1770 40.3510 138 94 66
12679.9170 -40294.1730 39.4500 196 147 125
12655.8690 -40294.1690 44.3730 254 254 236
12674.7940 -40294.1690 40.0300 255 226 188
12662.3470 -40294.1680 39.7260 238 170 135
12688.8140 -40294.1670 36.0910 174 109 92
12662.3920 -40294.1660 40.3720 218 156 123
12655.8700 -40294.1650 44.3560 254 254 228
12675.1510 -40294.1630 39.5490 254 226 186
12676.1270 -40294.1610 38.9240 247 210 164
12657.7190 -40294.1600 37.2970 222 145 98
12682.5240 -40294.1600 36.5410 248 247 239
12651.8600 -40294.1580 43.3320 201 138 91
12663.6660 -40294.1580 40.7040 253 202 176
12664.7970 -40294.1580 35.4720 217 152 100
12662.4630 -40294.1560 37.5610 253 229 210
12675.6830 -40294.1550 38.6680 239 202 156
12679.2910 -40294.1520 39.0020 142 95 70
12689.1080 -40294.1520 36.9510 164 93 57
12661.1010 -40294.1490 39.5710 217 166 131
12679.7850 -40294.1460 37.9570 120 93 86
12680.9790 -40294.1460 34.5600 161 130 108
12681.2000 -40294.1440 33.6100 188 132 87
12656.5120 -40294.1430 36.2650 160 84 50
12665.0590 -40294.1420 32.0430 175 122 96
12672.1630 -40294.1420 41.5060 169 130 101
12660.0150 -40294.1410 38.9160 172 108 75
12677.3580 -40294.1410 39.3000 254 241 210
12674.2220 -40294.1400 40.4870 225 175 130
12652.0930 -40294.1390 42.4600 186 122 64
12665.4680 -40294.1380 36.5580 140 93 65
12675.3970 -40294.1380 23.5510 246 203 157
12676.7770 -40294.1380 35.9900 254 226 189
12660.7730 -40294.1370 39.3610 124 80 73
12675.3140 -40294.1370 39.2470 251 217 174
12675.0130 -40294.1360 39.4960 140 103 71
12665.2060 -40294.1350 39.1180 247 221 202
12674.7070 -40294.1350 38.3050 240 204 152
12650.1350 -40294.1330 45.8240 165 109 73
12674.8220 -40294.1310 40.5990 223 168 119
12679.2130 -40294.1310 38.7060 217 170 118
12673.2950 -40294.1300 18.7490 235 220 195
12686.6160 -40294.1300 36.1950 213 151 94
12672.4720 -40294.1290 39.7700 131 91 72
12673.7610 -40294.1290 41.6890 249 216 182
12674.9730 -40294.1280 41.0580 254 236 200
12656.2520 -40294.1270 35.9590 230 164 95
12679.6330 -40294.1270 38.2210 213 197 187
12681.5250 -40294.1270 39.0560 209 173 142
12663.4000 -40294.1260 40.6500 254 224 193
12673.7680 -40294.1250 43.6830 255 236 202
12656.2940 -40294.1220 42.8450 254 236 138
12683.0160 -40294.1220 10.3210 218 185 149
12656.2410 -40294.1210 35.9410 230 165 88
12674.4330 -40294.1210 41.1680 210 169 128
12655.9530 -40294.1200 42.4380 252 208 105
12663.3840 -40294.1200 40.6070 254 226 198
12680.6750 -40294.1190 34.1420 229 218 201
12657.4800 -40294.1170 36.8620 228 150 99
12657.5520 -40294.1170 36.9970 215 139 95
12676.0620 -40294.1170 40.3940 253 232 197
12676.6750 -40294.1160 40.3800 247 211 178
12651.2670 -40294.1150 42.9700 244 187 73
12662.7760 -40294.1150 37.3480 135 86 44
12662.7760 -40294.1150 37.3480 135 86 44
12675.2930 -40294.1130 39.1500 252 218 175
12675.3650 -40294.1130 41.1830 133 96 67
12676.4780 -40294.1130 38.4000 192 181 157
12673.2860 -40294.1120 17.0400 139 129 116
12673.5450 -40294.1120 41.3770 166 130 103
12681.1940 -40294.1120 36.9960 226 193 178
12668.2860 -40294.1100 41.4840 247 228 193
12668.8770 -40294.1080 40.7080 218 166 128
12654.5500 -40294.1070 34.2280 239 162 88
12649.6070 -40294.1060 45.6660 247 184 91
12662.2220 -40294.1060 39.4090 244 171 145
12666.8630 -40294.1060 38.6050 138 90 67
12673.3030 -40294.1060 18.6980 234 219 194
12656.1880 -40294.1030 36.0850 207 125 89
12655.2640 -40294.1020 45.0770 251 237 123
12673.6360 -40294.1020 41.4800 152 115 90
12669.5000 -40294.1010 41.6010 210 189 144
12667.2100 -40294.0990 41.6310 246 178 120
12674.3880 -40294.0980 36.8780 181 130 107
12674.7760 -40294.0960 37.3840 156 119 89
12657.2610 -40294.0940 42.4430 247 248 176
12675.5710 -40294.0930 39.0910 201 161 124
12676.8410 -40294.0930 39.3750 224 175 133
12676.8410 -40294.0930 39.3750 224 175 133
12673.3100 -40294.0910 18.6680 234 219 192
12673.9190 -40294.0900 42.3460 172 131 107
12656.2520 -40294.0880 36.1920 192 111 75
12671.4970 -40294.0880 36.4610 131 91 68
12656.9000 -40294.0850 42.6460 255 236 150
12668.1610 -40294.0850 41.5890 248 205 164
12681.4900 -40294.0850 34.9310 250 216 184
12655.3650 -40294.0820 38.4310 167 115 69
12664.6750 -40294.0820 38.6970 232 166 121
12674.3130 -40294.0820 42.0860 253 226 186
12674.6140 -40294.0820 41.5650 254 249 225
12663.9410 -40294.0800 22.2570 190 133 65
12673.4550 -40294.0800 41.6810 236 196 159
12683.2750 -40294.0790 10.3110 151 121 86
12666.0220 -40294.0780 36.9790 218 164 110
12666.0220 -40294.0780 36.9790 218 164 110
12673.7440 -40294.0780 38.4510 184 136 98
12674.8500 -40294.0770 37.3940 91 68 54
12677.3470 -40294.0760 38.5790 247 205 160
12657.2020 -40294.0750 42.3310 247 247 176
12663.6230 -40294.0750 40.2110 254 215 187
12672.3340 -40294.0750 39.9940 155 111 85
12680.7130 -40294.0730 38.6960 212 160 146
12661.0380 -40294.0710 40.6070 196 149 137
12684.9890 -40294.0710 37.0920 116 83 81
12672.4580 -40294.0700 40.7490 148 97 73
12661.5670 -40294.0670 38.9460 139 91 73
12674.2770 -40294.0650 37.4990 150 107 87
12655.9710 -40294.0620 36.0760 161 91 49
12670.6160 -40294.0620 27.8970 118 83 67
12671.1610 -40294.0620 34.9050 172 131 105
12673.0290 -40294.0620 39.2490 236 192 135
12675.1340 -40294.0620 39.3530 240 186 141
12661.2020 -40294.0600 39.8040 212 152 130
12677.8010 -40294.0600 40.9860 230 197 142
12662.0520 -40294.0590 39.6440 230 171 136
12662.0890 -40294.0590 39.4050 241 175 134
12673.4170 -40294.0590 41.9410 191 154 124
12667.5800 -40294.0560 41.2120 167 125 101
12655.9650 -40294.0550 36.0610 164 90 50
12674.8420 -40294.0510 37.2550 172 130 99
12655.9800 -40294.0500 36.0930 163 91 50
12658.5530 -40294.0500 43.7100 92 64 57
12649.7160 -40294.0490 45.3730 169 116 63
12676.1620 -40294.0490 38.0420 204 161 118
12676.0250 -40294.0480 40.1260 253 243 213
12675.5100 -40294.0470 38.7390 204 165 134
12656.2440 -40294.0460 44.1880 131 83 58
12657.2790 -40294.0450 36.4780 195 114 72
12661.6780 -40294.0450 39.4730 209 152 110
12656.4590 -40294.0440 42.9130 248 219 110
12661.3790 -40294.0440 39.8290 223 169 125
12668.8410 -40294.0440 37.9770 132 88 65
12673.6720 -40294.0440 16.5650 123 85 61
12674.2630 -40294.0440 41.8090 253 220 179
12677.3920 -40294.0430 39.1780 252 233 201
12675.1150 -40294.0410 39.1830 240 187 140
12676.5390 -40294.0410 39.6410 242 216 185
12660.0240 -40294.0400 39.4840 242 183 131
12683.7570 -40294.0400 10.3080 139 108 90
12655.8890 -40294.0390 42.2690 253 233 135
12682.0410 -40294.0370 32.4120 201 149 118
12671.2060 -40294.0360 41.3970 127 83 68
12674.0030 -40294.0360 41.1810 192 142 109
12656.4330 -40294.0340 43.3000 253 210 116
12665.1590 -40294.0320 38.8470 246 213 192
12667.0720 -40294.0320 39.3450 203 140 83
12682.3420 -40294.0320 8.6460 172 138 91
12683.2290 -40294.0320 8.6910 225 202 134
12659.7100 -40294.0300 38.8070 231 178 150
12663.4360 -40294.0300 37.9800 254 223 195
12656.2950 -40294.0290 40.9600 204 144 84
12686.6100 -40294.0290 10.3860 173 130 105
12655.5340 -40294.0270 35.5520 234 159 82
12673.8520 -40294.0260 36.4970 172 120 96
12678.8130 -40294.0230 36.1810 204 139 105
12685.6720 -40294.0230 8.5510 102 73 59
12673.6740 -40294.0220 42.2960 252 209 154
12668.1590 -40294.0210 39.7760 135 81 61
12673.4540 -40294.0210 40.8900 174 127 97
12656.5880 -40294.0200 41.0640 112 74 59
12679.9740 -40294.0190 39.4930 233 198 165
12689.6340 -40294.0190 38.2870 165 110 90
12660.6750 -40294.0170 39.6640 218 167 144
12661.5600 -40294.0170 39.0020 131 78 68
12661.2470 -40294.0160 39.5890 226 170 128
12675.5140 -40294.0130 38.3560 244 201 152
12677.5610 -40294.0130 39.1160 226 158 128
12660.2680 -40294.0120 39.2230 178 123 103
12683.6130 -40294.0110 33.6740 245 241 229
12674.2420 -40294.0100 41.6890 253 227 190
12666.7520 -40294.0080 40.6710 156 94 63
12654.3810 -40294.0070 34.6740 253 191 113
12660.7930 -40294.0070 39.7550 221 180 142
12676.5990 -40294.0070 39.7540 248 217 185
12660.9810 -40294.0060 39.7270 229 176 139
12663.7400 -40294.0050 41.5020 253 206 176
12659.5680 -40294.0030 38.9640 217 146 104
12674.5950 -40294.0020 41.3310 254 228 190
12665.6920 -40294.0010 22.9620 218 155 84
12657.3530 -40294.0000 42.9640 194 141 76
12671.7710 -40294.0000 34.9740 242 204 149
12677.3140 -40293.9970 39.5100 237 175 134
12659.5250 -40293.9960 37.1590 109 71 59
12673.3210 -40293.9960 42.0470 186 134 105
12654.8820 -40293.9950 44.1420 242 178 103
12670.4150 -40293.9950 41.7900 148 103 82
12650.4130 -40293.9940 41.9360 221 160 62
12671.0860 -40293.9940 41.4630 241 196 149
12674.1420 -40293.9940 39.9260 240 194 151
12667.6190 -40293.9920 41.3240 158 115 93
12668.4200 -40293.9920 40.4880 125 83 66
12663.5880 -40293.9910 40.7460 243 189 157
12660.8020 -40293.9900 40.1310 182 135 118
12664.9920 -40293.9890 37.9860 204 149 119
12668.3860 -40293.9890 41.1760 240 200 157
12674.2680 -40293.9890 41.7060 253 227 186
12663.6120 -40293.9880 40.7320 234 172 145
12673.6330 -40293.9880 41.6820 178 133 101
12661.4490 -40293.9860 39.8830 228 178 122
12683.8050 -40293.9860 39.4700 251 245 238
12655.7780 -40293.9830 36.0850 223 160 108
12674.1760 -40293.9830 42.2410 222 178 128
12659.2780 -40293.9810 39.0250 235 178 140
12674.3380 -40293.9810 32.6590 103 77 66
12651.4330 -40293.9780 43.1150 221 169 75
