ply
format ascii 1.0
element vertex 1123
property float x
property float y
property float z
property uchar red
property uchar green
property uchar blue
element face 0
property list uchar int vertex_indices
end_header
12641.0120 -40333.4600 30.6130 134 124 111
12640.0810 -40333.4590 10.7630 125 103 86
12680.2180 -40333.4590 45.7930 142 136 94
12653.6000 -40333.4570 19.5880 145 132 117
12689.4670 -40333.4560 12.2000 109 81 73
12653.8470 -40333.4500 18.2000 133 117 99
12664.3000 -40333.4470 28.8570 113 87 72
12642.3520 -40333.4440 10.2890 115 86 72
12666.5740 -40333.4440 39.2380 108 95 84
12670.8950 -40333.4430 15.3570 125 104 91
12653.2050 -40333.4420 14.4710 74 64 58
12670.2430 -40333.4420 33.9620 136 128 112
12658.1280 -40333.4370 5.8720 89 81 68
12654.5630 -40333.4340 21.0590 114 95 85
12676.3160 -40333.4310 40.3360 120 112 87
12655.9830 -40333.4300 17.2270 87 78 68
12667.9300 -40333.4280 36.3360 130 115 104
12653.6760 -40333.4270 22.8990 125 111 93
12665.9780 -40333.4270 32.6380 131 117 96
12654.7770 -40333.4260 20.4710 121 99 89
12664.8470 -40333.4260 29.7360 125 111 94
12641.9500 -40333.4250 32.8180 115 96 83
12668.5350 -40333.4250 34.1000 125 106 95
12661.7400 -40333.4240 29.8540 108 84 69
12675.1330 -40333.4240 16.4420 127 114 103
12651.0400 -40333.4200 20.0730 119 111 102
12665.2220 -40333.4190 17.1660 89 72 60
12671.0820 -40333.4130 12.2420 121 104 95
12667.2240 -40333.4090 39.2110 130 122 99
12685.1890 -40333.4080 44.1510 144 138 116
12640.4930 -40333.4050 32.8590 131 119 111
12657.8340 -40333.4050 10.3830 105 88 72
12662.1300 -40333.4010 16.7920 118 98 78
12654.2270 -40333.3970 20.1660 138 124 110
12646.6580 -40333.3960 15.8500 115 90 78
12676.8060 -40333.3950 41.7600 113 97 78
12643.6950 -40333.3940 10.8290 108 81 70
12685.0170 -40333.3920 34.3730 143 141 119
12664.3980 -40333.3910 27.5550 118 112 98
12686.4210 -40333.3880 7.2800 107 80 63
12671.8940 -40333.3870 12.9810 113 86 78
12664.3330 -40333.3860 29.3460 113 91 75
12654.3540 -40333.3850 20.2460 134 112 91
12657.2570 -40333.3830 10.2200 92 73 62
12671.8230 -40333.3830 11.6690 124 103 92
12640.2490 -40333.3820 27.7360 104 93 85
12649.6780 -40333.3820 16.7870 109 105 90
12653.5710 -40333.3790 22.8380 132 121 100
12659.1620 -40333.3770 21.9330 102 82 70
12641.6960 -40333.3750 31.4920 126 112 102
12670.6450 -40333.3750 25.3460 99 80 67
12640.7440 -40333.3720 31.4810 141 131 121
12653.7840 -40333.3690 19.0080 141 131 111
12644.0420 -40333.3680 23.3840 114 103 92
12654.5110 -40333.3680 15.0330 82 72 65
12671.8560 -40333.3650 16.5270 132 111 97
12650.6050 -40333.3640 21.4490 124 100 85
12684.5130 -40333.3640 27.3730 117 102 85
12651.4180 -40333.3610 21.4740 117 95 83
12656.1760 -40333.3600 12.4400 116 100 79
12650.9850 -40333.3590 16.5980 114 92 80
12676.2510 -40333.3590 7.7890 110 85 70
12660.2830 -40333.3580 17.4960 96 77 66
12641.4600 -40333.3540 30.5350 120 108 98
12666.4210 -40333.3510 37.4490 155 141 128
12641.6280 -40333.3490 12.2780 124 101 87
12661.6060 -40333.3470 6.2530 102 75 68
12687.1350 -40333.3470 8.7200 113 88 65
12640.6000 -40333.3460 31.1020 141 132 122
12651.2130 -40333.3460 14.6550 119 101 87
12650.5400 -40333.3440 15.3770 113 91 78
12655.9750 -40333.3430 13.2140 101 87 68
12681.3940 -40333.3410 49.3640 148 141 109
12648.5140 -40333.3350 15.9650 112 83 66
12671.4540 -40333.3330 13.5380 105 86 81
12668.9340 -40333.3320 23.8250 101 90 77
12658.0570 -40333.3310 16.4210 104 81 65
12677.1740 -40333.3300 36.8630 110 90 72
12688.1810 -40333.3290 11.5080 115 88 78
12641.5170 -40333.3240 33.2230 132 123 111
12666.8650 -40333.3230 38.1270 131 111 99
12669.9920 -40333.3190 15.8720 103 85 70
12667.5070 -40333.3180 38.0810 153 143 128
12688.6440 -40333.3180 11.6340 126 112 96
12682.1500 -40333.3110 43.6420 138 129 112
12646.5350 -40333.3100 14.9690 119 101 90
12650.0720 -40333.3100 15.5250 83 67 56
12689.5940 -40333.3080 46.0750 107 86 67
12655.3200 -40333.3070 9.1310 101 88 69
12669.0600 -40333.3050 35.3590 159 156 148
12641.8170 -40333.3010 32.8590 128 116 105
12647.6900 -40333.3010 18.9310 114 89 73
12655.1470 -40333.3010 18.3330 137 113 86
12652.8640 -40333.3000 17.4380 147 129 116
12671.4320 -40333.2940 2.9460 132 118 112
12680.3410 -40333.2900 45.7380 125 112 91
12650.5770 -40333.2880 21.2560 118 99 88
12662.5490 -40333.2850 14.0750 103 81 68
12679.7220 -40333.2770 10.1420 117 90 78
12657.6040 -40333.2760 32.2200 127 109 96
12669.3110 -40333.2760 33.1180 129 125 113
12688.1630 -40333.2750 38.5680 115 100 85
12689.0480 -40333.2750 36.1950 132 137 115
12646.4940 -40333.2720 11.4550 115 86 73
12640.0160 -40333.2700 12.6250 108 86 75
12654.6560 -40333.2700 9.0360 108 93 77
12670.3330 -40333.2700 8.6130 99 83 69
12650.7740 -40333.2690 13.7700 122 100 90
12650.7740 -40333.2690 13.7700 122 100 90
12654.0300 -40333.2680 18.9410 129 101 86
12641.6290 -40333.2650 36.0310 127 112 104
12669.0980 -40333.2650 10.6140 104 84 75
12669.9740 -40333.2640 36.6470 155 141 139
12672.1410 -40333.2620 14.2120 118 104 92
12667.0400 -40333.2610 37.7220 132 116 102
12670.8020 -40333.2610 11.0050 104 83 75
12651.2290 -40333.2590 13.6720 88 69 61
12676.2790 -40333.2590 46.1470 141 133 106
12647.7770 -40333.2570 18.6520 111 87 70
12664.4970 -40333.2550 11.9700 107 84 72
12678.4840 -40333.2540 15.1340 114 90 78
12675.4390 -40333.2440 17.1020 123 113 102
12641.4430 -40333.2430 24.0140 91 85 75
12669.0520 -40333.2430 34.7330 165 162 150
12667.3350 -40333.2380 31.7240 126 114 102
12655.8180 -40333.2350 13.6050 125 105 88
12685.0740 -40333.2350 45.4220 112 99 78
12685.8100 -40333.2330 48.1760 132 128 102
12677.7300 -40333.2310 42.8940 129 121 98
12676.1720 -40333.2290 42.7620 121 100 88
12643.0420 -40333.2280 32.7680 122 109 100
12653.3550 -40333.2260 16.9640 101 90 89
12640.7300 -40333.2250 16.5330 106 83 74
12667.2700 -40333.2220 36.4810 143 133 116
12657.0390 -40333.2190 7.4760 73 63 57
12681.1700 -40333.2190 43.1060 147 149 119
12685.3550 -40333.2180 7.6760 77 63 57
12669.0200 -40333.2170 32.0100 140 135 125
12672.2200 -40333.2150 13.6150 112 86 76
12655.5090 -40333.2140 10.1240 99 86 70
12642.0740 -40333.2130 31.3260 111 93 83
12684.3460 -40333.2130 47.1790 135 129 110
12683.7610 -40333.2120 5.7950 142 126 117
12642.0370 -40333.2110 28.4740 113 95 80
12654.2810 -40333.2100 20.0940 129 102 89
12640.4220 -40333.2040 20.0610 100 81 68
12669.3120 -40333.2040 10.1630 107 91 76
12646.3450 -40333.1960 10.7610 117 85 71
12650.8720 -40333.1930 16.5620 113 90 81
12649.6000 -40333.1880 24.9910 117 88 75
12666.4330 -40333.1860 30.5220 133 120 109
12667.0110 -40333.1850 34.5870 141 133 110
12686.4670 -40333.1830 47.4320 146 140 116
12673.3950 -40333.1800 14.0760 111 82 74
12653.7160 -40333.1760 28.8530 148 131 113
12679.3410 -40333.1710 16.5900 120 91 77
12673.1920 -40333.1700 18.8000 109 89 83
12674.3110 -40333.1650 14.6940 124 107 96
12664.6140 -40333.1620 13.2420 118 100 82
12652.4810 -40333.1540 9.6480 109 78 67
12652.4810 -40333.1540 9.6480 109 78 67
12683.2570 -40333.1490 43.9450 106 84 68
12678.0020 -40333.1460 30.0600 138 129 91
12641.4180 -40333.1440 9.8930 110 79 66
12641.5830 -40333.1420 13.8390 113 86 75
12653.0050 -40333.1380 17.3800 145 128 110
12652.0870 -40333.1370 22.1030 123 116 101
12652.0870 -40333.1370 22.1030 123 116 101
12652.1400 -40333.1370 19.8350 125 118 105
12651.0550 -40333.1350 16.9660 121 94 83
12667.0240 -40333.1340 31.0060 105 78 65
12669.1350 -40333.1340 32.6600 140 131 120
12670.1320 -40333.1330 11.8670 94 76 72
12667.8420 -40333.1260 35.2580 176 171 158
12644.7870 -40333.1250 13.0130 125 103 86
12651.8350 -40333.1240 13.2920 86 62 57
12667.3940 -40333.1240 38.4580 156 154 144
12671.5190 -40333.1220 13.6490 95 80 75
12642.4140 -40333.1200 33.2170 113 100 88
12667.4840 -40333.1190 34.3620 163 157 145
12667.8180 -40333.1190 12.0310 106 82 69
12650.7260 -40333.1180 16.6360 108 85 75
12641.4740 -40333.1140 29.7090 132 127 116
12669.1340 -40333.1090 33.3080 145 136 126
12685.3870 -40333.1090 42.4200 149 140 120
12686.4320 -40333.1090 38.2900 113 96 75
12652.2780 -40333.1060 17.0630 133 123 111
12665.9660 -40333.1050 34.8090 113 95 79
12677.3060 -40333.1040 45.8560 123 116 95
12680.8990 -40333.1040 17.6870 120 89 70
12678.4560 -40333.1030 14.2720 117 91 79
12667.0310 -40333.1020 28.9640 123 116 104
12640.0240 -40333.1010 26.8220 135 123 113
12641.1930 -40333.0960 14.4830 123 102 87
12667.2750 -40333.0960 28.9960 160 156 145
12648.0510 -40333.0900 11.7940 120 102 86
12670.1470 -40333.0880 13.8480 113 98 87
12640.0240 -40333.0870 15.6850 106 85 71
12642.6360 -40333.0870 11.1030 103 75 63
12642.3790 -40333.0840 35.7020 138 128 117
12675.5350 -40333.0810 44.5970 131 113 92
12654.0060 -40333.0800 10.8210 108 79 65
12670.1800 -40333.0800 36.7230 121 97 77
12681.5350 -40333.0800 16.1860 115 89 78
12681.5350 -40333.0800 16.1860 115 89 78
12676.7700 -40333.0790 40.7360 118 102 95
12644.2230 -40333.0760 12.1800 105 84 75
12652.4800 -40333.0740 8.5570 122 103 82
12667.4060 -40333.0720 38.1440 158 150 140
12653.3470 -40333.0700 10.0370 109 80 64
12668.8820 -40333.0680 12.5020 125 104 90
12687.5260 -40333.0660 32.1480 161 162 133
12642.1650 -40333.0630 31.1180 124 118 104
12685.9360 -40333.0610 7.1480 107 83 61
12680.7830 -40333.0600 39.1030 131 124 98
12687.4870 -40333.0600 32.8360 149 149 124
12671.7550 -40333.0590 14.1140 100 85 80
12686.3990 -40333.0530 32.2160 106 85 70
12651.0720 -40333.0490 8.2080 115 84 67
12669.4290 -40333.0480 34.8180 142 137 121
12654.0880 -40333.0430 8.8240 122 103 88
12653.7330 -40333.0400 14.6540 136 127 100
12652.0010 -40333.0350 23.8540 107 86 74
12684.8810 -40333.0350 7.4340 118 90 70
12643.2540 -40333.0290 32.4010 130 114 104
12669.1990 -40333.0230 35.5760 132 113 105
12675.9960 -40333.0230 7.8050 119 100 86
12684.8480 -40333.0200 7.6090 118 90 70
12659.1750 -40333.0190 23.5000 128 120 101
12662.3930 -40333.0190 9.4860 108 83 66
12662.9730 -40333.0170 11.7340 116 98 81
12641.7720 -40333.0130 16.3870 110 86 73
12669.1830 -40333.0130 34.8430 116 97 89
12678.8070 -40333.0110 48.5220 117 114 91
12652.4970 -40333.0100 13.2480 73 55 53
12669.1870 -40333.0090 34.8560 120 97 89
12666.6710 -40333.0070 29.4970 131 123 107
12669.5550 -40333.0040 36.5300 116 94 85
12658.7950 -40333.0020 15.0490 100 81 67
12650.4210 -40332.9980 15.7680 130 122 107
12671.3170 -40332.9980 11.9640 100 80 71
12652.0890 -40332.9970 16.4170 124 97 85
12677.8810 -40332.9970 41.8810 113 100 75
12640.1420 -40332.9920 23.2420 122 107 94
12669.6940 -40332.9900 35.2520 143 137 129
12673.3190 -40332.9900 19.6670 133 108 95
12685.2920 -40332.9830 8.1790 73 61 56
12670.9500 -40332.9820 14.2670 101 86 80
12687.6250 -40332.9760 5.1330 124 93 71
12667.3150 -40332.9750 36.9410 166 161 150
12675.9720 -40332.9750 8.1820 119 100 85
12660.4780 -40332.9730 16.1170 113 99 81
12650.1040 -40332.9720 10.1800 116 88 73
12654.2370 -40332.9690 19.3670 120 93 76
12668.0050 -40332.9690 13.2250 122 103 88
12671.9770 -40332.9610 13.4910 110 88 71
12688.6840 -40332.9610 14.3250 144 126 115
12686.0120 -40332.9590 44.9940 119 102 86
12680.4000 -40332.9580 7.9040 117 88 76
12667.1340 -40332.9570 39.2960 143 128 105
12667.1340 -40332.9570 39.2960 143 128 105
12654.7960 -40332.9550 19.8830 132 107 93
12659.4920 -40332.9550 23.6760 116 96 83
12682.2470 -40332.9490 45.1350 124 102 81
12640.5600 -40332.9470 21.1350 119 104 91
12641.7010 -40332.9470 35.6840 132 120 110
12654.0250 -40332.9470 8.8470 124 103 87
12656.6080 -40332.9440 17.6550 113 90 75
12680.1270 -40332.9440 41.3500 133 127 91
12640.0670 -40332.9360 38.4090 131 123 110
12657.5140 -40332.9360 18.1230 107 86 71
12649.4940 -40332.9350 17.4340 100 90 75
12652.5410 -40332.9340 16.4640 73 64 60
12651.5300 -40332.9310 19.7450 121 99 84
12651.9620 -40332.9300 23.1750 119 100 92
12652.4800 -40332.9280 12.2520 126 110 94
12651.6740 -40332.9210 16.2300 111 87 77
12651.8390 -40332.9200 19.0050 151 129 114
12681.4170 -40332.9190 14.9000 123 103 86
12681.4170 -40332.9190 14.9000 123 103 86
12654.3420 -40332.9180 15.6180 118 88 70
12669.6390 -40332.9180 33.1410 118 92 77
12687.0600 -40332.9180 13.5740 104 96 80
12659.3650 -40332.9170 15.9320 105 94 74
12675.5790 -40332.9150 43.5820 111 90 74
12666.4290 -40332.9110 33.2290 112 90 74
12670.3830 -40332.9110 11.8580 118 100 94
12687.2940 -40332.9110 46.9280 123 108 87
12651.9240 -40332.9090 19.3670 152 128 114
12687.1460 -40332.9050 7.6200 113 82 63
12667.3100 -40332.9000 36.9960 167 162 153
12667.8290 -40332.9000 36.4550 168 165 154
12668.3510 -40332.8980 22.6610 125 107 98
12670.4280 -40332.8980 11.9590 118 100 93
12685.7710 -40332.8980 9.1610 112 87 66
12660.3440 -40332.8960 9.2430 92 72 62
12660.3440 -40332.8960 9.2430 92 72 62
12676.8900 -40332.8960 29.3950 97 79 68
12678.8640 -40332.8920 13.3560 116 91 82
12678.9500 -40332.8910 9.3370 126 101 87
12682.1230 -40332.8910 42.0430 146 143 109
12687.5450 -40332.8870 48.0950 126 123 101
12640.4490 -40332.8860 11.7290 116 91 76
12670.6580 -40332.8860 28.5370 104 85 74
12667.2050 -40332.8850 38.4200 137 118 105
12650.5510 -40332.8830 21.7350 118 116 106
12686.4330 -40332.8830 7.6020 119 89 68
12669.9900 -40332.8820 24.1310 101 88 73
12676.6000 -40332.8800 44.0770 107 90 74
12677.7950 -40332.8790 44.0840 149 143 105
12674.9330 -40332.8780 15.9740 118 102 91
12650.2590 -40332.8770 14.1720 110 86 73
12679.0800 -40332.8750 37.7530 150 156 120
12649.9520 -40332.8690 23.7300 124 104 94
12652.6520 -40332.8670 11.3540 125 111 94
12667.4910 -40332.8640 38.9390 157 150 129
12670.4910 -40332.8530 30.7260 141 132 121
12652.7420 -40332.8490 16.3170 116 97 91
12640.3050 -40332.8460 34.6300 126 105 94
12652.2280 -40332.8460 13.9440 73 59 55
12687.5600 -40332.8460 14.4030 86 76 72
12653.1800 -40332.8410 9.4920 114 85 70
12650.9210 -40332.8330 14.0550 131 118 107
12680.4380 -40332.8270 11.9820 118 92 79
12654.0720 -40332.8240 22.3670 151 127 112
12650.9630 -40332.8170 23.5320 139 127 116
12689.7690 -40332.8130 45.3700 124 104 88
12650.3210 -40332.8110 13.9390 110 85 72
12641.2410 -40332.8090 23.6950 110 91 78
12665.1540 -40332.8050 28.5640 108 88 72
12651.2530 -40332.8020 21.4590 123 99 83
12668.3170 -40332.8000 41.6290 161 158 145
12672.2060 -40332.8000 15.7780 100 90 82
12654.6050 -40332.7980 21.6100 137 113 89
12668.8610 -40332.7970 22.5100 110 103 82
12669.6540 -40332.7960 36.2140 143 129 120
12684.0820 -40332.7960 8.9470 110 82 65
12651.6130 -40332.7930 14.4140 119 92 81
12660.5610 -40332.7910 9.6910 115 85 68
12670.1190 -40332.7910 32.4890 117 91 73
12664.1200 -40332.7900 8.3110 95 75 64
12652.9680 -40332.7890 16.4120 138 122 111
12654.5280 -40332.7880 21.1940 140 115 91
12684.8000 -40332.7870 8.0070 112 85 71
12640.1480 -40332.7850 19.6800 109 83 73
12666.1190 -40332.7850 36.1590 159 145 131
12677.8830 -40332.7840 16.4010 119 97 87
12640.5090 -40332.7830 26.2810 110 98 85
12655.4360 -40332.7800 10.2140 131 121 104
12669.9090 -40332.7780 13.0370 118 101 84
12675.9380 -40332.7780 12.7670 121 96 87
12684.7840 -40332.7660 8.1560 112 84 70
12669.6360 -40332.7640 36.4690 114 113 99
12679.5850 -40332.7630 9.6510 108 80 66
12643.0590 -40332.7610 31.5540 127 114 103
12665.9850 -40332.7610 11.0460 111 86 75
12643.0540 -40332.7600 31.5560 128 114 105
12667.0560 -40332.7590 33.6410 127 118 100
12641.6510 -40332.7570 30.3560 132 126 118
12658.3520 -40332.7570 8.5430 84 70 63
12667.2270 -40332.7550 36.1310 162 156 145
12642.0350 -40332.7490 28.7580 128 117 107
12667.3020 -40332.7430 37.1280 135 116 100
12640.4340 -40332.7410 25.1190 69 62 56
12651.4580 -40332.7410 18.6410 126 108 97
12659.0290 -40332.7410 8.0580 76 64 60
12670.3170 -40332.7400 8.7810 118 89 79
12650.1360 -40332.7390 15.2120 120 98 81
12686.3090 -40332.7340 7.2430 106 82 62
12644.6300 -40332.7300 17.4670 117 91 79
12674.5220 -40332.7270 17.1550 106 84 72
12640.8340 -40332.7250 31.1440 119 94 85
12667.3080 -40332.7240 31.7240 114 92 80
12651.8760 -40332.7230 11.6310 113 90 79
12655.7510 -40332.7230 9.6380 104 86 72
12656.3240 -40332.7220 11.2150 93 75 63
12640.3670 -40332.7170 10.5780 117 96 83
12640.3670 -40332.7170 10.5780 117 96 83
12650.9530 -40332.7110 17.9520 104 80 70
12667.4870 -40332.7080 37.6140 137 123 104
12659.3990 -40332.7070 4.7180 108 91 76
12687.0650 -40332.7030 12.0610 116 102 98
12667.2280 -40332.7000 27.4960 124 118 106
12660.0030 -40332.6950 25.1040 129 110 89
12687.8250 -40332.6950 11.2520 138 131 119
12648.9610 -40332.6920 25.3420 132 117 103
12654.1880 -40332.6910 20.3870 151 128 106
12689.5530 -40332.6910 46.1820 159 151 120
12680.5000 -40332.6810 44.2260 134 134 111
12667.6060 -40332.6780 38.4480 127 104 85
12667.3340 -40332.6730 38.6230 140 124 112
12689.2950 -40332.6730 39.4810 122 123 95
12687.9810 -40332.6700 14.3040 134 108 97
12687.9810 -40332.6700 14.3040 134 108 97
12689.5980 -40332.6680 42.8350 128 114 103
12642.3570 -40332.6670 15.2680 93 77 66
12662.2600 -40332.6650 4.9770 108 77 66
12660.1900 -40332.6640 13.5140 105 81 65
12653.6810 -40332.6590 19.3850 129 107 91
12670.5320 -40332.6580 30.4270 152 143 131
12684.9690 -40332.6580 8.0430 113 82 66
12674.9350 -40332.6560 17.6130 114 86 73
12641.6740 -40332.6550 25.5620 107 105 92
12651.7260 -40332.6500 17.7460 125 106 93
12686.5810 -40332.6500 7.4530 106 76 61
12665.5680 -40332.6490 15.3400 123 103 89
12670.9980 -40332.6460 13.0920 79 69 64
12685.1460 -40332.6460 8.5550 83 61 56
12689.5630 -40332.6400 43.3230 142 136 109
12666.7820 -40332.6390 39.6920 103 88 82
12654.8670 -40332.6370 20.2850 114 89 75
12650.6790 -40332.6340 14.8560 129 121 106
12658.1290 -40332.6330 13.4450 133 113 92
12650.5140 -40332.6320 26.9500 120 103 89
12676.9600 -40332.6260 38.7150 124 111 94
12683.9530 -40332.6260 46.3880 120 108 92
12650.8320 -40332.6230 20.4960 89 79 77
12686.3710 -40332.6200 7.1660 98 75 56
12667.3720 -40332.6160 38.7480 140 125 114
12667.3720 -40332.6160 38.7480 140 125 114
12683.9500 -40332.6160 14.1640 85 71 65
12683.9500 -40332.6160 14.1640 85 71 65
12641.4780 -40332.6110 28.4330 113 92 83
12641.4780 -40332.6110 28.4330 113 92 83
12667.4750 -40332.6090 23.6890 142 133 118
12668.3460 -40332.6050 31.1720 145 137 123
12668.0810 -40332.6040 26.5510 123 114 102
12675.7630 -40332.6010 9.7240 115 95 77
12648.8540 -40332.5940 22.4190 132 121 107
12677.3130 -40332.5940 39.4860 89 73 57
12653.6300 -40332.5930 20.4300 124 112 89
12651.7230 -40332.5920 15.1960 112 89 78
12668.3520 -40332.5920 40.3670 128 104 83
12661.2760 -40332.5900 6.3210 120 94 74
12667.5870 -40332.5890 38.3750 121 98 80
12649.9430 -40332.5720 14.9690 112 82 70
12678.9450 -40332.5710 14.6930 127 109 96
12655.5660 -40332.5700 6.4550 100 85 70
12661.4970 -40332.5700 8.5920 110 86 69
12643.2810 -40332.5690 27.3720 111 90 76
12689.9020 -40332.5670 32.4980 132 115 99
12670.4610 -40332.5600 10.0900 106 78 69
12642.0570 -40332.5590 23.7680 112 90 76
12680.0070 -40332.5590 42.6850 141 131 113
12640.8660 -40332.5580 32.3850 135 121 115
12679.2140 -40332.5580 40.3520 115 97 83
12650.5990 -40332.5500 14.0860 126 107 94
12658.7630 -40332.5500 11.1930 118 93 71
12662.9530 -40332.5490 16.3270 103 79 66
12682.6160 -40332.5480 42.9990 140 136 114
12668.4540 -40332.5410 31.5170 118 105 100
12668.5470 -40332.5400 35.5210 127 111 100
12650.2700 -40332.5390 9.0370 112 84 68
12643.2850 -40332.5350 11.1870 117 86 72
12642.7210 -40332.5340 9.1840 117 89 70
12656.4860 -40332.5340 5.6500 97 88 84
12668.7420 -40332.5340 8.3300 77 65 57
12668.0020 -40332.5320 38.3320 166 161 146
12651.0940 -40332.5280 19.5130 111 87 79
12663.4280 -40332.5280 15.4840 119 101 88
12667.2570 -40332.5280 28.8730 114 85 69
12687.4330 -40332.5250 40.5260 124 111 93
12689.2280 -40332.5250 45.5430 160 152 114
12651.1200 -40332.5240 14.2060 111 80 67
12687.8770 -40332.5210 13.4850 112 86 75
12640.4870 -40332.5200 7.5800 125 107 88
12657.4040 -40332.5200 18.4270 86 72 60
12667.8120 -40332.5190 3.9620 115 92 79
12677.8540 -40332.5170 52.7250 113 107 85
12667.3710 -40332.5160 32.3320 113 89 74
12672.8290 -40332.5100 16.2760 108 92 85
12640.2740 -40332.5030 26.3160 73 72 53
12668.7360 -40332.5020 35.4160 139 129 116
12650.3610 -40332.5000 13.0230 107 75 64
12686.9560 -40332.4970 44.5430 126 114 95
12650.0710 -40332.4900 26.2070 122 113 95
12684.8280 -40332.4900 8.9580 109 82 69
12681.1040 -40332.4880 12.3750 130 107 92
12667.8370 -40332.4860 38.8950 167 162 145
12641.7180 -40332.4850 29.2410 138 131 124
12656.0160 -40332.4790 12.4160 134 108 88
12672.4950 -40332.4750 12.4490 119 100 87
12658.6160 -40332.4730 7.1740 132 104 80
12670.6300 -40332.4690 10.3960 108 80 69
12667.5730 -40332.4670 38.5290 136 120 106
12688.7040 -40332.4670 14.4320 147 129 121
12659.1390 -40332.4640 13.7360 107 82 65
12641.5910 -40332.4620 11.6350 126 105 91
12654.1980 -40332.4590 18.2940 113 92 73
12680.6510 -40332.4590 29.1920 101 75 64
12686.3770 -40332.4570 8.8770 106 76 64
12651.7270 -40332.4540 28.1060 120 112 99
12668.3550 -40332.4540 17.1300 106 83 72
12670.8770 -40332.4540 31.9710 104 81 67
12651.2670 -40332.4500 24.8170 143 130 117
12670.3910 -40332.4500 33.3430 116 92 70
12678.9710 -40332.4500 38.8300 150 154 118
12669.1770 -40332.4470 31.3010 155 152 143
12678.8000 -40332.4470 37.7200 140 139 106
12668.6950 -40332.4450 34.1770 120 103 98
12659.1510 -40332.4430 13.6650 106 81 65
12651.3170 -40332.4420 16.0290 93 83 68
12667.7810 -40332.4420 34.8170 155 152 139
12687.0710 -40332.4400 15.7360 122 104 96
12677.2100 -40332.4380 19.1330 111 95 84
12647.3050 -40332.4340 21.2040 132 116 104
12652.7410 -40332.4220 12.9890 109 92 80
12661.1500 -40332.4200 8.0040 85 67 56
12662.8820 -40332.4200 22.0660 97 80 66
12642.9130 -40332.4190 12.3410 110 87 71
12651.9140 -40332.4160 17.2410 136 121 108
12652.1640 -40332.4150 15.9830 106 92 78
12651.4530 -40332.4130 21.7730 136 120 108
12650.8680 -40332.4120 15.8240 119 109 99
12666.6250 -40332.4110 30.7770 129 125 108
12688.5450 -40332.4030 29.5550 99 82 69
12672.9380 -40332.4000 16.1500 115 98 89
12677.2740 -40332.4000 16.0380 120 97 86
12640.2790 -40332.3990 13.4590 124 109 93
12641.3950 -40332.3970 6.3150 112 82 71
12642.3010 -40332.3970 22.0860 119 116 99
12673.0400 -40332.3940 14.6680 117 93 82
12670.7330 -40332.3900 13.9130 104 83 72
12673.0560 -40332.3900 14.6880 115 91 81
12665.0800 -40332.3880 12.8990 104 78 71
12668.6780 -40332.3880 28.4700 96 87 73
12650.3440 -40332.3870 13.5970 122 96 82
12679.5150 -40332.3840 14.1140 131 112 101
12668.7220 -40332.3810 16.0500 115 93 79
12671.4740 -40332.3810 16.4990 107 91 82
12676.6320 -40332.3810 16.5100 106 80 62
12687.6680 -40332.3770 8.8610 91 80 70
12679.4130 -40332.3730 36.1970 143 147 116
12643.3630 -40332.3710 30.1830 126 118 107
12656.9500 -40332.3710 11.3650 110 81 65
12653.4840 -40332.3690 12.0980 118 87 66
12640.8630 -40332.3650 17.8380 115 90 74
12664.0450 -40332.3650 11.8550 120 103 89
12681.3100 -40332.3630 22.0750 108 84 73
12670.8910 -40332.3590 38.7860 128 99 93
12683.3420 -40332.3590 43.5670 127 119 95
12654.4950 -40332.3530 4.0470 105 77 65
12680.8520 -40332.3520 15.4420 121 94 84
12682.3490 -40332.3520 37.3760 135 127 105
12641.0230 -40332.3510 22.8080 107 85 74
12654.2720 -40332.3510 20.5560 130 114 96
12666.2350 -40332.3510 36.8320 164 159 143
12643.6300 -40332.3500 15.3970 115 89 75
12670.6540 -40332.3490 12.5310 104 80 74
12660.6460 -40332.3440 8.4920 90 69 57
12660.6460 -40332.3440 8.4920 90 69 57
12668.8570 -40332.3420 27.2400 141 141 128
12641.5180 -40332.3400 18.6830 95 72 63
12650.5610 -40332.3380 14.1130 127 106 91
12640.7740 -40332.3330 12.2010 114 91 77
12667.8440 -40332.3270 38.2030 165 166 148
12655.9430 -40332.3260 25.0310 97 78 65
12684.6190 -40332.3230 16.0670 131 103 86
12655.2750 -40332.3220 25.5100 161 137 117
12666.6430 -40332.3220 30.4580 127 128 109
12666.9060 -40332.3220 31.5940 104 83 80
12653.1570 -40332.3210 11.0230 116 103 88
12641.0800 -40332.3180 22.9170 109 86 75
12641.3270 -40332.3100 10.9810 125 106 89
12675.5410 -40332.3100 15.7030 116 95 87
12678.7860 -40332.3100 39.7700 148 154 115
12658.9300 -40332.3080 15.5090 109 95 79
12678.0060 -40332.3070 12.1960 101 86 77
12686.2250 -40332.3060 37.2680 137 124 102
12640.2780 -40332.3040 25.8600 92 75 61
12641.7530 -40332.3040 33.5880 119 99 90
12641.5110 -40332.2980 11.5450 127 105 90
12651.7040 -40332.2960 15.3940 113 94 80
12672.5620 -40332.2960 15.8580 111 96 85
12653.6790 -40332.2930 18.3270 160 138 116
12676.5710 -40332.2920 39.5150 85 66 54
12677.7300 -40332.2850 40.0270 131 121 98
12686.2030 -40332.2840 7.8490 71 60 55
12682.9130 -40332.2730 19.9070 125 103 89
12685.1030 -40332.2710 9.6970 87 66 58
12672.1560 -40332.2680 13.5400 104 75 66
12672.1560 -40332.2680 13.5400 104 75 66
12667.8080 -40332.2660 39.8660 118 93 75
12667.8080 -40332.2660 39.8660 118 93 75
12653.8720 -40332.2560 19.0190 143 119 104
12661.9440 -40332.2560 19.0630 118 107 91
12669.9950 -40332.2550 26.3240 125 103 93
12667.4690 -40332.2520 34.5510 104 83 74
12662.6790 -40332.2500 10.9480 103 83 71
12649.7540 -40332.2490 28.9530 112 86 74
12655.8070 -40332.2470 25.3100 98 79 66
12659.6100 -40332.2460 13.8850 115 98 79
12687.4300 -40332.2430 10.2260 100 85 80
12668.0560 -40332.2400 37.2530 155 155 133
12681.4770 -40332.2400 13.3160 132 109 95
12641.7230 -40332.2380 12.3520 124 107 88
12661.4100 -40332.2380 6.9070 119 91 71
12669.4650 -40332.2380 32.8910 144 135 126
12669.6490 -40332.2330 38.8390 121 106 94
12681.2990 -40332.2320 7.4590 137 112 97
12681.3110 -40332.2310 7.6150 135 110 94
12665.2570 -40332.2280 30.8390 131 115 100
12689.0770 -40332.2240 45.8450 130 115 101
12689.0770 -40332.2240 45.8450 130 115 101
12651.4050 -40332.2220 13.3140 106 76 66
12669.8220 -40332.2210 36.5400 111 89 81
12689.8090 -40332.2210 14.9090 75 64 65
12640.2520 -40332.2120 26.7480 65 62 51
12658.6060 -40332.2030 7.3500 80 61 54
12689.8810 -40332.2030 46.3850 129 112 85
12651.5540 -40332.2020 17.5910 143 126 115
12640.6380 -40332.1980 26.8010 107 94 82
12666.0960 -40332.1960 31.0030 140 133 116
12668.6360 -40332.1920 33.7990 134 136 118
12672.1020 -40332.1910 17.6600 113 100 84
12680.7230 -40332.1890 11.0200 111 86 75
12685.4370 -40332.1890 35.6210 136 126 104
12642.0560 -40332.1840 19.0140 120 104 87
12663.5000 -40332.1770 9.5730 104 81 65
12652.4030 -40332.1760 26.7840 128 114 102
12689.6620 -40332.1760 13.2370 106 81 65
12689.6620 -40332.1760 13.2370 106 81 65
12688.9290 -40332.1700 8.8890 138 119 104
12687.4540 -40332.1680 32.5550 115 104 81
12682.2810 -40332.1590 19.5840 128 107 96
12642.2210 -40332.1570 18.7440 91 79 71
12667.7510 -40332.1560 39.6440 128 106 90
12670.3280 -40332.1550 32.4320 122 98 80
12643.9420 -40332.1480 22.0360 104 84 75
12666.6540 -40332.1450 14.6530 124 111 93
12676.3190 -40332.1450 31.6600 111 89 75
12677.8980 -40332.1450 16.3630 131 114 99
12642.8400 -40332.1420 17.0480 124 111 96
12644.4890 -40332.1420 26.4510 106 79 68
12664.8630 -40332.1420 30.1630 144 136 123
12686.5600 -40332.1420 7.6800 65 56 51
12688.8650 -40332.1390 40.3620 119 100 87
12689.6230 -40332.1370 11.0880 132 114 99
12670.0510 -40332.1340 34.3920 136 125 114
12667.2690 -40332.1330 38.6910 119 107 96
12668.7520 -40332.1330 29.1420 84 77 71
12667.9830 -40332.1320 35.8550 134 123 114
12662.6630 -40332.1270 22.4410 108 88 75
12687.3970 -40332.1250 14.1830 128 120 114
12669.4460 -40332.1240 32.2870 147 138 128
12640.5880 -40332.1220 17.3160 116 100 91
12673.7630 -40332.1210 18.1860 99 84 78
12684.7270 -40332.1210 30.7980 144 130 110
12684.7270 -40332.1210 30.7980 144 130 110
12660.7210 -40332.1190 11.8520 113 92 76
12672.3910 -40332.1190 13.3260 111 82 72
12644.7370 -40332.1170 15.8050 98 80 65
12644.7370 -40332.1170 15.8050 98 80 65
12669.2890 -40332.1170 33.3640 152 144 132
12680.0280 -40332.1160 7.2950 133 110 90
12686.7400 -40332.1150 7.1860 69 58 53
12665.6780 -40332.1110 8.4060 94 73 62
12668.1160 -40332.1110 39.3530 118 104 95
12668.7900 -40332.1110 27.7920 147 141 129
12665.9860 -40332.1090 31.0860 145 139 123
12655.1800 -40332.1080 18.7790 122 97 81
12689.8470 -40332.1080 43.1760 141 130 112
12649.4280 -40332.1050 11.8110 106 79 65
12668.2090 -40332.1040 39.4950 160 156 144
12662.5510 -40332.1010 16.8650 127 113 96
12687.9790 -40332.0980 14.7620 106 92 87
12687.9790 -40332.0980 14.7620 106 92 87
12687.9790 -40332.0980 14.7620 106 92 87
12667.3380 -40332.0970 31.5020 108 86 75
12668.9210 -40332.0920 28.5730 150 147 138
12659.5000 -40332.0910 23.7730 100 77 66
12685.3970 -40332.0910 9.3980 58 50 46
12661.2090 -40332.0830 26.4590 109 86 74
12667.9490 -40332.0820 34.8430 135 125 107
12682.3440 -40332.0820 45.7230 119 107 87
12672.5920 -40332.0800 13.0200 144 125 110
12678.6980 -40332.0800 15.5840 127 114 103
12674.5430 -40332.0790 12.8770 133 114 104
12687.1150 -40332.0780 12.9320 123 111 105
12651.1350 -40332.0770 14.7290 112 83 68
12674.9610 -40332.0760 10.6650 124 103 88
12651.0080 -40332.0720 22.8380 121 115 99
12671.2560 -40332.0710 34.0260 104 88 77
12671.2560 -40332.0710 34.0260 104 88 77
12641.7490 -40332.0660 36.6910 122 94 83
12649.8250 -40332.0640 13.5040 140 122 112
12685.4150 -40332.0640 8.4540 75 67 58
12663.0320 -40332.0630 17.5030 113 93 86
12671.4130 -40332.0610 10.5280 118 93 79
12641.1870 -40332.0590 15.2800 103 80 71
12671.7720 -40332.0590 10.7540 110 85 71
12669.9970 -40332.0570 30.2140 104 85 73
12688.8000 -40332.0560 41.7520 155 148 125
12649.3890 -40332.0530 11.9770 106 80 66
12671.2150 -40332.0530 14.9860 104 81 71
12689.2490 -40332.0530 13.6160 129 118 104
12668.1740 -40332.0520 38.4450 163 158 146
12666.5610 -40332.0440 34.9300 121 103 89
12687.9100 -40332.0440 13.6630 114 87 74
12642.4020 -40332.0430 10.0460 112 84 72
12649.9990 -40332.0430 14.3920 110 87 79
12669.3640 -40332.0430 13.2980 133 114 102
12651.4980 -40332.0410 20.4310 114 96 83
12667.7210 -40332.0410 39.3580 124 100 81
12640.3230 -40332.0400 16.6370 122 104 90
12669.8360 -40332.0400 12.5200 127 105 91
12661.8810 -40332.0360 6.2750 115 87 67
12665.2740 -40332.0350 34.9930 115 95 80
12685.5470 -40332.0320 7.8560 77 68 57
12657.6040 -40332.0310 15.0550 108 80 69
12675.9840 -40332.0270 19.7510 114 85 76
12689.5080 -40332.0270 13.9580 112 82 67
12649.9750 -40332.0200 19.1870 128 109 94
12668.1230 -40332.0200 37.5120 166 162 146
12678.2470 -40332.0200 35.2190 129 122 100
12654.4690 -40332.0190 20.5230 136 118 99
12655.3810 -40332.0180 17.8840 122 95 80
12679.4100 -40332.0170 10.5690 119 94 83
12652.7620 -40332.0150 12.6020 118 91 79
12684.7740 -40332.0140 7.8200 82 71 61
12668.2700 -40332.0120 41.4110 164 157 140
12677.1940 -40332.0110 33.2250 106 81 61
12651.4920 -40332.0090 11.9190 109 82 77
12685.5270 -40332.0090 8.0360 77 68 58
12657.1270 -40332.0060 17.8010 126 99 80
12649.2980 -40332.0030 17.9710 117 96 81
12662.2450 -40332.0010 6.7130 109 84 67
12689.5650 -40332.0010 14.1420 110 81 66
12650.5860 -40331.9990 26.4400 96 89 77
12661.2950 -40331.9990 7.6470 90 69 54
12676.7340 -40331.9990 16.5700 125 111 101
12662.9530 -40331.9980 14.1180 112 96 80
12672.8740 -40331.9950 31.5190 135 121 108
12676.3020 -40331.9930 8.5790 92 71 59
12687.5650 -40331.9920 13.8390 133 124 117
12660.9820 -40331.9910 7.4500 95 73 60
12656.0690 -40331.9900 10.3630 101 76 66
12682.0140 -40331.9900 45.5000 145 139 104
12641.2490 -40331.9890 22.0810 95 75 65
12642.6300 -40331.9880 10.7480 100 73 63
12669.7810 -40331.9860 29.0710 134 119 113
12652.2420 -40331.9820 17.3260 131 118 102
12642.6900 -40331.9810 10.9260 102 75 63
12651.3410 -40331.9810 22.5920 114 88 77
12660.0240 -40331.9770 11.3820 96 73 60
12682.9760 -40331.9770 14.7700 109 84 72
12641.5290 -40331.9760 7.9160 109 89 73
12662.5880 -40331.9750 20.0190 113 103 87
12658.1410 -40331.9730 26.8870 146 132 119
12654.2130 -40331.9710 21.0510 135 120 104
12644.4100 -40331.9650 21.5890 121 99 83
12683.4520 -40331.9640 45.5560 136 135 114
12671.8560 -40331.9580 12.5220 104 74 64
12680.6010 -40331.9540 7.5860 122 99 80
12652.1220 -40331.9530 14.8010 112 94 82
12653.9510 -40331.9450 18.7290 157 135 118
12650.6130 -40331.9440 10.0750 110 79 67
12654.6900 -40331.9440 19.3920 138 120 93
12654.6170 -40331.9350 20.1020 135 121 101
12655.2130 -40331.9340 10.7670 124 96 83
12658.3760 -40331.9340 27.3640 99 77 66
12681.1390 -40331.9320 12.1300 110 86 74
12642.7640 -40331.9290 11.1300 100 75 65
12668.6800 -40331.9280 25.2060 140 136 128
12686.1550 -40331.9230 32.4250 137 115 87
12651.7470 -40331.9190 18.1990 144 130 114
12676.8210 -40331.9160 40.5720 119 102 91
12649.5350 -40331.9140 18.1100 118 97 87
12654.3580 -40331.9140 24.8260 127 108 87
12663.3200 -40331.9140 13.9640 103 77 68
12667.5890 -40331.9140 39.3740 150 146 131
12667.6870 -40331.9050 38.3180 125 99 85
12663.6700 -40331.9020 14.5530 104 77 65
12664.4110 -40331.9020 34.0300 143 134 118
12663.3580 -40331.8980 16.4140 120 111 94
12641.3350 -40331.8970 18.4630 125 111 93
12655.9840 -40331.8970 11.3590 121 92 73
12655.9840 -40331.8970 11.3590 121 92 73
12677.9230 -40331.8960 16.9480 119 96 87
12641.1360 -40331.8940 12.5580 108 83 71
12653.5660 -40331.8920 17.9370 129 107 94
12689.2620 -40331.8900 15.2980 108 80 65
12653.6890 -40331.8860 13.8130 116 101 77
12662.5830 -40331.8860 18.1600 120 112 91
12671.8270 -40331.8860 12.9050 109 79 71
12653.3950 -40331.8830 8.8670 120 87 69
12650.9420 -40331.8780 17.7570 76 58 54
12653.8080 -40331.8780 27.2530 102 82 69
12653.8080 -40331.8780 27.2530 102 82 69
12668.0570 -40331.8760 38.5650 162 153 143
12662.1100 -40331.8750 11.8410 118 100 79
12671.9080 -40331.8750 13.0310 109 81 66
12641.1060 -40331.8740 8.7440 114 87 75
12641.1060 -40331.8740 8.7440 114 87 75
12651.5300 -40331.8700 17.1980 146 132 116
12650.4130 -40331.8680 28.7040 122 119 106
12661.1950 -40331.8660 6.8790 95 72 58
12642.8790 -40331.8650 14.7570 115 94 80
12683.5330 -40331.8650 39.0350 107 89 77
12661.9840 -40331.8610 12.6580 106 83 68
12679.3390 -40331.8590 16.4340 111 93 84
12663.6820 -40331.8580 13.3640 103 79 70
12646.2370 -40331.8540 15.6340 120 106 95
12685.9960 -40331.8520 9.1240 73 65 58
12668.1810 -40331.8470 40.3280 126 99 80
12668.1810 -40331.8470 40.3280 126 99 80
12652.2950 -40331.8450 26.5290 122 114 101
12653.8410 -40331.8440 18.5110 116 97 84
12668.3330 -40331.8430 39.4300 151 147 133
12669.9080 -40331.8430 37.5900 128 129 113
12660.1210 -40331.8410 12.6080 116 98 79
12649.5670 -40331.8330 22.9600 116 106 95
12660.3530 -40331.8320 20.5400 107 87 71
12640.2140 -40331.8310 29.5740 119 101 88
12656.9780 -40331.8300 7.7250 97 74 63
12662.6000 -40331.8250 17.3570 122 108 99
12654.9760 -40331.8230 30.3030 124 97 80
12651.0240 -40331.8220 22.1610 83 72 72
12661.8220 -40331.8190 7.9690 90 70 58
12682.0730 -40331.8190 10.9310 115 87 74
12655.1820 -40331.8180 13.8580 104 74 61
12658.4740 -40331.8180 3.1690 75 69 59
12661.5650 -40331.8180 7.2540 93 71 59
12669.5130 -40331.8160 26.0220 126 106 92
12654.6840 -40331.8090 20.2280 126 112 94
12671.9020 -40331.8090 16.9120 118 102 87
12651.7270 -40331.8080 16.6940 79 64 59
12640.4250 -40331.8070 21.3610 99 73 66
12640.4360 -40331.8020 32.0290 124 113 96
12664.3430 -40331.7980 31.2720 149 137 122
12667.7850 -40331.7950 37.2810 157 149 138
12657.7790 -40331.7940 16.6230 137 114 96
12640.6060 -40331.7920 9.6360 122 103 88
12654.6580 -40331.7890 20.2730 131 118 102
12670.1750 -40331.7860 35.7750 137 128 113
12662.4960 -40331.7820 33.2570 142 125 110
12662.4960 -40331.7820 33.2570 142 125 110
12666.2140 -40331.7810 36.9370 118 98 81
12651.5900 -40331.7770 28.3720 128 109 92
12678.2600 -40331.7770 43.5750 129 117 90
12660.3540 -40331.7730 9.9070 115 96 77
12666.2650 -40331.7730 36.8770 159 150 140
12688.2080 -40331.7690 41.9430 142 132 113
12669.2510 -40331.7630 34.6060 116 93 73
12685.6660 -40331.7610 8.0490 71 56 49
12640.9670 -40331.7600 38.6990 115 85 77
12679.2830 -40331.7600 18.9950 121 98 91
12689.5120 -40331.7600 17.0060 145 129 117
12678.6560 -40331.7590 38.5940 136 138 111
12667.3740 -40331.7530 40.6120 140 128 105
12686.4590 -40331.7530 7.9940 91 83 69
12675.0880 -40331.7520 34.6320 114 90 73
12649.7300 -40331.7500 13.9660 121 100 84
12655.4810 -40331.7450 6.8370 105 79 68
12672.0980 -40331.7450 12.0630 113 89 74
12648.6250 -40331.7390 24.3340 141 126 110
12684.0300 -40331.7390 41.1450 152 134 121
12661.5640 -40331.7370 6.2160 110 87 76
12650.9770 -40331.7350 11.7850 108 84 71
12649.0710 -40331.7300 26.9160 132 117 105
12652.0050 -40331.7300 9.5860 111 88 74
12668.1320 -40331.7300 37.9560 162 158 144
12668.3540 -40331.7300 37.9010 140 140 121
12680.0430 -40331.7280 17.3410 123 110 97
12663.5160 -40331.7250 17.1710 100 83 76
12668.1920 -40331.7250 35.1000 141 136 121
12666.2820 -40331.7240 33.4710 114 105 95
12650.1350 -40331.7230 13.8220 120 98 85
12679.1070 -40331.7150 41.5180 114 92 79
12682.9280 -40331.7130 44.5450 119 97 82
12646.3000 -40331.7090 18.6190 121 102 87
12655.5460 -40331.7080 17.0880 122 101 84
12662.8900 -40331.7070 19.9240 107 88 80
12681.9390 -40331.7070 45.6790 128 110 90
12656.0520 -40331.7050 30.2270 161 140 122
12670.7610 -40331.7000 14.1950 122 101 86
12667.7680 -40331.6970 39.8940 163 156 139
12659.0730 -40331.6890 10.7850 117 93 74
12644.3080 -40331.6850 11.5650 115 90 79
12671.3440 -40331.6800 9.7590 113 87 72
12656.4300 -40331.6750 29.9070 151 133 119
12652.3650 -40331.6740 17.2190 69 60 54
12652.3650 -40331.6740 17.2190 69 60 54
12659.5290 -40331.6730 6.4250 74 65 58
12683.5590 -40331.6700 45.0890 125 113 90
12683.0140 -40331.6680 45.4960 133 130 112
12654.3670 -40331.6630 9.3600 119 86 71
12675.2020 -40331.6570 9.3790 124 106 97
12675.2960 -40331.6550 22.0010 111 96 91
12684.8840 -40331.6550 12.9540 70 59 51
12655.3040 -40331.6510 22.6690 127 116 100
12661.0700 -40331.6510 23.0840 126 119 103
12662.1420 -40331.6500 7.2740 90 67 56
12684.9790 -40331.6500 8.9720 67 57 51
12672.9650 -40331.6490 17.1200 89 74 69
12667.4650 -40331.6450 28.1810 108 84 75
12650.9400 -40331.6410 16.7070 112 92 78
12651.9560 -40331.6400 12.1350 129 109 88
12662.8080 -40331.6340 17.1200 112 91 83
12651.2280 -40331.6300 15.8290 147 131 116
12655.8200 -40331.6300 13.8460 128 106 91
12661.4450 -40331.6250 7.6090 116 91 73
12650.0990 -40331.6230 9.1700 113 86 68
12663.6260 -40331.6230 15.2540 111 91 82
12643.0810 -40331.6200 10.7570 110 84 71
12658.3130 -40331.6200 18.8320 127 113 97
12679.9970 -40331.6190 11.1220 113 91 81
12675.0580 -40331.6170 9.6620 109 85 68
12668.0220 -40331.6160 35.8620 137 132 117
12682.9780 -40331.6150 44.4990 108 90 80
12684.2540 -40331.6110 43.6360 107 83 67
12685.5610 -40331.6110 7.4150 106 91 72
12640.6210 -40331.6090 33.3890 119 94 83
12642.8290 -40331.6090 12.3820 127 105 92
12651.1500 -40331.6090 15.6570 139 123 114
12662.2170 -40331.6090 7.0460 88 66 55
12670.4040 -40331.6040 12.3990 104 74 64
12665.1660 -40331.6020 19.1650 110 91 78
12665.6490 -40331.6020 9.0390 103 79 69
12662.2750 -40331.6010 19.6380 106 85 74
12688.4920 -40331.5980 11.4930 131 111 96
12650.9030 -40331.5960 19.0120 117 104 90
12663.0390 -40331.5960 16.5960 112 92 82
12676.4660 -40331.5960 43.3830 112 89 68
12650.0040 -40331.5940 29.3030 139 123 105
12668.9290 -40331.5920 13.7860 101 76 59
12678.8390 -40331.5900 40.9650 110 84 68
12650.8360 -40331.5860 27.5920 108 92 79
12676.6560 -40331.5860 40.4730 135 125 105
12641.4450 -40331.5830 27.2060 125 112 96
12677.5730 -40331.5790 13.2420 115 99 93
12670.9380 -40331.5760 31.4750 129 104 89
12667.6620 -40331.5730 38.8660 132 116 111
12641.5430 -40331.5680 13.4430 126 105 90
12654.1130 -40331.5670 16.6040 111 85 72
12652.2090 -40331.5650 26.3400 126 102 88
12651.7660 -40331.5640 10.7540 109 88 75
12653.6300 -40331.5640 9.3730 125 94 73
12651.0240 -40331.5610 8.5030 104 75 64
12664.6170 -40331.5570 30.6540 132 119 101
12640.9650 -40331.5510 9.9570 107 78 66
12659.4560 -40331.5490 16.7330 108 93 76
12685.5830 -40331.5470 15.8140 126 108 97
12667.9680 -40331.5430 38.1140 142 137 129
12667.9680 -40331.5430 38.1140 142 137 129
12665.9980 -40331.5370 30.2190 112 88 69
12677.1830 -40331.5360 15.4960 137 128 117
12640.6080 -40331.5340 14.1660 115 93 76
12661.4110 -40331.5320 6.7770 122 98 78
12671.5300 -40331.5310 36.0080 134 121 105
12685.5580 -40331.5290 38.9420 136 133 112
12665.0070 -40331.5260 29.3250 117 96 86
12680.8760 -40331.5220 10.0120 135 110 91
12652.7130 -40331.5160 23.8460 133 117 105
12658.5160 -40331.5150 17.4000 102 77 63
12667.2470 -40331.5150 40.0570 154 145 129
12674.1920 -40331.5150 17.7380 100 73 64
12657.5420 -40331.5140 12.5210 129 108 94
12656.0770 -40331.5090 19.1320 111 94 81
12676.7880 -40331.5080 18.3290 114 93 88
12665.5800 -40331.5070 20.1070 102 78 68
12681.0010 -40331.5050 41.5330 123 112 93
12655.1420 -40331.4980 18.5970 134 118 100
12654.1490 -40331.4970 8.9800 117 89 69
12663.8190 -40331.4940 16.3640 104 84 72
12653.1380 -40331.4870 24.9770 154 138 123
12688.6340 -40331.4860 15.6860 140 125 117
12682.6400 -40331.4850 44.9480 151 144 106
12686.6390 -40331.4820 8.2910 140 128 120
12643.6930 -40331.4780 17.5610 114 95 78
12640.2650 -40331.4770 19.7300 114 94 77
12640.2650 -40331.4770 19.7300 114 94 77
12681.1300 -40331.4770 10.6930 135 108 90
12655.3760 -40331.4740 17.5830 120 98 85
12680.2690 -40331.4710 42.7040 151 151 120
12680.9350 -40331.4700 14.4670 117 92 84
12653.4290 -40331.4650 8.2300 123 90 73
12641.6230 -40331.4630 20.2310 114 86 74
12680.5690 -40331.4620 18.5430 120 107 93
12678.2980 -40331.4600 17.5520 126 107 98
12649.6970 -40331.4560 27.9310 133 115 98
12684.1650 -40331.4530 9.1750 109 87 69
12686.0930 -40331.4490 8.1730 88 67 56
12665.8050 -40331.4480 17.0770 113 86 73
12662.3170 -40331.4460 13.5070 112 96 76
12679.5560 -40331.4460 35.6570 114 91 81
12648.1650 -40331.4410 12.7320 101 79 65
12652.8560 -40331.4380 25.5640 123 112 101
12642.4470 -40331.4340 17.1880 120 96 82
12642.7710 -40331.4280 17.8250 120 95 83
12654.1830 -40331.4280 28.0010 133 114 96
12669.1840 -40331.4230 11.5770 120 99 85
12683.1100 -40331.4150 40.3640 116 96 79
12683.7380 -40331.4150 40.4110 139 120 106
12687.1830 -40331.4140 14.1240 117 91 77
12681.0710 -40331.4040 14.4130 136 115 97
12643.9810 -40331.4030 24.0540 110 90 80
12661.2090 -40331.4020 19.6180 122 95 74
12647.4500 -40331.4010 12.5800 112 98 85
12647.4500 -40331.4010 12.5800 112 98 85
12683.8430 -40331.3980 8.5260 102 78 67
12640.5780 -40331.3950 19.3930 117 97 79
12678.0380 -40331.3950 13.4800 99 89 83
12671.0040 -40331.3940 13.9050 105 79 66
12674.8590 -40331.3930 31.4900 82 67 56
12667.7680 -40331.3920 35.3650 124 101 84
12686.4650 -40331.3910 8.4390 83 63 55
12660.7330 -40331.3870 14.2600 119 99 81
12667.5240 -40331.3850 26.6370 132 126 118
12641.8450 -40331.3800 12.8560 117 94 81
12665.5760 -40331.3780 18.6200 117 104 89
12677.9850 -40331.3730 11.4820 141 127 110
12642.7130 -40331.3690 17.5400 120 95 82
12670.4260 -40331.3650 30.7440 108 85 68
12679.2670 -40331.3650 40.9780 113 90 78
12682.8870 -40331.3630 45.2680 126 106 85
12683.7990 -40331.3630 8.8980 103 79 67
12650.7550 -40331.3620 27.1320 140 133 118
12652.5900 -40331.3580 16.3250 133 119 103
12660.6680 -40331.3560 15.0050 102 90 77
12650.0990 -40331.3550 30.3400 131 116 97
12671.0760 -40331.3530 4.5690 110 87 73
12652.1010 -40331.3460 17.6500 118 105 92
12670.2020 -40331.3460 40.2580 142 127 117
12668.0690 -40331.3450 25.3750 137 129 119
12645.9730 -40331.3430 12.1030 97 81 70
12671.8140 -40331.3420 8.7300 116 93 81
12677.2300 -40331.3390 37.7500 115 91 68
12653.5350 -40331.3370 28.4960 127 102 84
12678.2500 -40331.3360 41.2520 133 141 104
12642.6910 -40331.3350 29.0280 132 122 115
12644.3910 -40331.3340 28.1690 121 110 101
12688.6980 -40331.3310 18.0570 132 123 116
12653.0540 -40331.3300 5.5930 108 90 73
12672.1120 -40331.3290 11.0890 136 118 104
12676.7370 -40331.3240 40.2890 110 91 83
12667.6520 -40331.3170 41.2570 142 123 108
12670.1990 -40331.3160 28.4930 145 130 119
12685.2970 -40331.3160 7.8190 94 71 58
12657.5630 -40331.3120 21.2240 129 111 95
12641.6940 -40331.3060 12.3850 117 93 80
12682.6530 -40331.3060 46.7240 122 105 89
12648.4320 -40331.3050 14.8260 109 80 67
12668.0290 -40331.3050 38.8510 117 92 73
12642.5330 -40331.3030 12.2020 128 108 90
12678.4580 -40331.2970 34.7870 103 88 71
12680.9600 -40331.2950 19.4680 113 102 90
12645.1910 -40331.2940 18.7520 114 84 70
12648.2440 -40331.2920 22.6630 143 122 109
12681.4150 -40331.2910 15.0420 129 111 93
12681.4150 -40331.2910 15.0420 129 111 93
12689.4210 -40331.2870 43.2280 147 136 115
12655.6770 -40331.2840 11.5550 137 121 112
12651.5300 -40331.2830 16.6100 115 98 88
12662.6660 -40331.2820 36.9590 101 89 79
12666.9180 -40331.2820 30.3730 130 128 118
12640.0800 -40331.2740 9.3460 107 78 65
12659.2280 -40331.2720 25.7180 107 89 76
12687.2400 -40331.2660 12.0030 128 110 99
12641.8270 -40331.2580 16.0180 122 103 89
12650.6240 -40331.2560 7.4620 109 83 71
12671.7190 -40331.2530 7.0860 120 100 82
12679.0600 -40331.2530 37.6530 145 138 107
12657.3050 -40331.2520 21.5700 112 104 86
12661.0310 -40331.2520 11.6120 111 93 76
12682.8580 -40331.2480 42.5640 112 98 83
12689.3320 -40331.2480 15.3800 130 116 105
12642.6880 -40331.2470 11.3510 119 99 85
12658.9030 -40331.2420 5.1160 121 97 80
12642.2350 -40331.2410 11.7340 124 100 84
12686.0320 -40331.2410 7.8630 97 77 60
12668.0300 -40331.2350 39.5660 129 108 91
12687.3820 -40331.2330 34.7020 141 127 104
12670.8060 -40331.2310 11.6390 109 83 72
12650.3210 -40331.2280 10.9690 109 78 65
12662.1300 -40331.2280 17.4430 107 81 67
12682.4010 -40331.2270 12.4610 131 110 89
12674.2710 -40331.2260 15.3430 115 87 76
12650.8080 -40331.2250 20.0340 122 98 82
12688.0920 -40331.2250 24.9220 140 116 93
12654.2260 -40331.2230 21.6560 120 100 82
12677.3220 -40331.2220 17.1300 130 116 106
12641.6720 -40331.2210 24.4160 112 90 77
12642.1530 -40331.2210 16.4260 125 108 91
12643.0700 -40331.2200 9.5550 112 85 75
12642.6230 -40331.2190 10.2950 122 105 89
12671.9890 -40331.2180 37.4030 131 115 99
12645.4200 -40331.2170 24.3930 108 87 72
12641.0770 -40331.2070 14.8700 113 86 69
12667.6870 -40331.2060 41.2790 160 154 149
12685.7570 -40331.2050 7.5470 94 69 60
12682.4560 -40331.1950 13.6420 117 90 75
12683.2330 -40331.1950 42.9990 130 121 101
12685.0310 -40331.1940 43.0590 152 139 124
12654.1940 -40331.1930 21.4790 122 100 83
12678.1300 -40331.1910 20.3710 131 115 105
12678.1300 -40331.1910 20.3710 131 115 105
12649.6240 -40331.1890 28.7800 134 119 99
12685.2310 -40331.1890 43.4350 149 139 120
12682.5240 -40331.1880 44.7670 118 96 75
12685.5180 -40331.1880 7.3590 120 92 73
12655.2650 -40331.1870 18.6370 131 118 96
12688.6440 -40331.1870 13.2020 108 95 94
12659.8870 -40331.1830 5.4060 75 63 61
12656.9480 -40331.1810 15.2440 114 86 73
12677.5910 -40331.1800 41.2840 114 95 81
12687.9650 -40331.1750 12.3020 123 99 85
12688.7430 -40331.1730 16.7240 118 94 86
12645.3430 -40331.1710 25.5750 111 85 70
12656.9300 -40331.1710 21.3400 124 108 90
12658.0950 -40331.1670 37.0220 134 119 108
12680.5030 -40331.1530 15.6890 135 120 108
12680.5030 -40331.1530 15.6890 135 120 108
12642.6760 -40331.1520 10.8360 121 103 87
12650.6810 -40331.1490 15.1430 121 105 90
12662.4580 -40331.1420 4.5220 90 70 54
12666.3410 -40331.1400 22.8580 110 83 67
12677.9420 -40331.1360 42.6480 135 118 96
12642.2050 -40331.1310 16.7120 126 110 96
12663.5470 -40331.1240 6.4410 91 72 57
12650.6610 -40331.1210 19.9880 101 83 72
12682.6280 -40331.1210 15.1090 119 91 80
12670.1610 -40331.1150 12.4680 125 104 84
